0.284061 -0.146031 -0.312655
0.274348 -0.144216 -0.313855
-0.292222 -0.106181 -0.3177
0.259046 -0.0984278 -0.322591
0.260812 -0.0840196 -0.312437
-0.293442 -0.0931123 -0.31589
-0.284342 -0.0763625 -0.322765
0.250411 -0.0824058 -0.323432
0.253328 -0.0669437 -0.316187
-0.148138 -0.0539277 -0.319189
0.231831 -0.0465813 -0.314755
-0.18228 -0.0405391 -0.313583
-0.133183 -0.0350787 -0.319946
-0.262591 -0.0444074 -0.320179
-0.24611 -0.0349068 -0.316102
-0.224283 -0.0304422 -0.314437
0.0950228 0.00996488 -0.317079
0.0740715 0.0259435 -0.317988
0.0566022 0.0348261 -0.318851
-0.0611034 0.0364161 -0.319376
-0.401329 -0.346482 -0.319364
-0.375493 -0.346907 -0.319202
-0.363299 -0.347003 -0.314405
-0.322861 -0.348675 -0.302383
-0.292132 -0.3496 -0.31334
-0.240606 -0.347137 -0.312041
0.0163299 -0.348248 -0.313211
0.227383 -0.350341 -0.30344
0.311355 -0.349623 -0.304645
0.390961 -0.347644 -0.313703
-0.441712 -0.344316 -0.313944
-0.177913 -0.346464 -0.305597
0.0842503 -0.343137 -0.312777
0.105715 -0.342301 -0.315846
-0.458185 -0.339038 -0.313885
0.473029 -0.341674 -0.309979
-0.464016 -0.321468 -0.310222
0.489622 -0.328416 -0.312982
-0.453218 -0.307401 -0.314484
-0.445644 -0.301979 -0.313676
-0.432138 -0.293828 -0.306962
-0.417512 -0.289438 -0.317025
0.47239 -0.28877 -0.31193
0.399852 -0.269036 -0.30968
0.354865 -0.255669 -0.311972
0.369658 -0.258672 -0.315935
-0.373947 -0.253912 -0.31316
-0.365564 -0.248531 -0.31848
0.332466 -0.247718 -0.309345
0.308515 -0.230824 -0.30994
-0.351599 -0.227262 -0.308983
0.301733 -0.223649 -0.320495
-0.340063 -0.211628 -0.312511
-0.330499 -0.199242 -0.31346
-0.31858 -0.194603 -0.314269
0.316713 -0.196267 -0.310474
-0.310601 -0.19959 -0.317776
-0.305746 -0.16841 -0.308694
0.312979 -0.18361 -0.313524
-0.298346 -0.173734 -0.311952
0.310897 -0.159676 -0.314231
0.303505 -0.156108 -0.315937
-0.292416 -0.136668 -0.315639
-0.299089 -0.147037 -0.307637
0.269643 -0.135064 -0.313234
0.265999 -0.0965821 -0.310959
-0.291139 -0.0606966 -0.310398
-0.286128 -0.0622441 -0.314892
-0.277691 -0.0452345 -0.311108
-0.162321 -0.0496391 -0.313412
0.222615 -0.0426084 -0.316033
0.141818 -0.0404014 -0.31582
0.200362 -0.0318397 -0.311642
-0.20185 -0.0348913 -0.31517
0.153111 -0.0335839 -0.308981
0.187043 -0.0354855 -0.317485
-0.131067 -0.0182823 -0.314475
-0.115778 -0.000917661 -0.30954
-0.101553 0.0102744 -0.313216
0.0196526 0.0643196 -0.310431
-0.02423 0.0552455 -0.319749
-0.0389306 0.0578002 -0.314891
0.240786 -0.350894 -0.313923
-0.305995 -0.349215 -0.305577
-0.272381 -0.349583 -0.305108
-0.223006 -0.346841 -0.308632
-0.187267 -0.348314 -0.296671
-0.184044 -0.344668 -0.313583
-0.150365 -0.346935 -0.306977
-0.108017 -0.349406 -0.297657
-0.0778966 -0.34858 -0.301772
-0.0492999 -0.348759 -0.304887
0.0511189 -0.342372 -0.31879
0.0408376 -0.349005 -0.302671
0.0596591 -0.344964 -0.309965
-0.417806 -0.345712 -0.304544
0.123495 -0.343687 -0.312348
0.137948 -0.343396 -0.311666
0.156444 -0.342437 -0.309884
0.193665 -0.344242 -0.305807
0.449874 -0.345689 -0.303442
-0.458198 -0.338503 -0.302996
-0.463889 -0.332254 -0.310166
0.488932 -0.312918 -0.304555
-0.461555 -0.316011 -0.309922
-0.455902 -0.309571 -0.305604
0.480789 -0.292545 -0.30402
0.475895 -0.288362 -0.302915
-0.407298 -0.282971 -0.310764
0.450515 -0.280048 -0.311427
0.377653 -0.264554 -0.304266
0.364946 -0.261799 -0.304078
0.326051 -0.24649 -0.305429
-0.346873 -0.216347 -0.310454
-0.345266 -0.199877 -0.306659
-0.337858 -0.201501 -0.310587
-0.330961 -0.187631 -0.310791
-0.341322 -0.185141 -0.30826
-0.323442 -0.180483 -0.309987
-0.311992 -0.181039 -0.312827
-0.317167 -0.170376 -0.308641
0.27808 -0.133528 -0.306814
0.264649 -0.114086 -0.315822
0.255645 -0.0546741 -0.306251
-0.151033 -0.0384502 -0.30775
0.145801 -0.0304433 -0.308225
0.195886 -0.0289382 -0.308903
-0.143049 -0.0220182 -0.306107
0.12793 -0.000444597 -0.300133
-0.130562 -0.00561724 -0.304602
0.113158 -0.00997523 -0.315449
0.0868583 0.0271018 -0.308636
-0.0900203 0.0254073 -0.309485
-0.0798469 0.0280252 -0.3132
-0.00394486 0.0605465 -0.317283
-0.0160121 0.0719808 -0.307296
0.27209 -0.350975 -0.300222
-0.394578 -0.347145 -0.309176
-0.0893071 -0.348898 -0.299799
0.0555074 -0.34915 -0.297001
0.35695 -0.348546 -0.298469
0.369979 -0.348608 -0.312206
0.405443 -0.347488 -0.305254
0.440832 -0.346304 -0.299503
-0.432042 -0.344679 -0.300849
0.180662 -0.340072 -0.308744
0.467066 -0.34331 -0.312288
-0.444841 -0.300701 -0.304998
0.486124 -0.300889 -0.304452
0.462221 -0.282609 -0.300275
0.427023 -0.273672 -0.298311
0.437845 -0.275735 -0.307085
-0.390429 -0.272205 -0.306475
0.41122 -0.271042 -0.303057
0.355026 -0.258667 -0.302332
-0.358212 -0.233343 -0.30448
0.313525 -0.234779 -0.300035
-0.353138 -0.213907 -0.305368
0.324455 -0.198367 -0.29988
0.325448 -0.187694 -0.300844
-0.346033 -0.183836 -0.305426
-0.336016 -0.171242 -0.304485
-0.304477 -0.157226 -0.30607
-0.318308 -0.158021 -0.306845
-0.302651 -0.147176 -0.304686
0.308516 -0.145302 -0.307379
0.317928 -0.149548 -0.305289
-0.300927 -0.12617 -0.302655
0.278502 -0.120352 -0.302992
0.275159 -0.104122 -0.302174
-0.294058 -0.0826387 -0.312232
-0.302966 -0.0796171 -0.299184
-0.298085 -0.0672594 -0.303376
0.2609 -0.0664572 -0.306641
-0.290609 -0.0474798 -0.304823
0.241419 -0.0429924 -0.30481
-0.15526 -0.045424 -0.310207
0.223466 -0.0288502 -0.301272
0.234639 -0.0356697 -0.303543
-0.267774 -0.0334783 -0.307897
0.168669 -0.0302383 -0.309315
-0.209734 -0.0312383 -0.313854
0.159278 -0.0251495 -0.301329
-0.240406 -0.0215296 -0.307361
-0.210894 -0.0143622 -0.293613
-0.14518 -0.00836143 -0.295223
0.106242 0.0120818 -0.308324
-0.0879469 0.0397979 -0.303264
0.0697461 0.0494052 -0.299914
-0.0741877 0.0457086 -0.306378
-0.0652564 0.047927 -0.310488
0.0428913 0.0565239 -0.308733
-0.0456658 0.064125 -0.307526
0.0272422 0.0732136 -0.302472
-0.0471334 -0.35045 -0.29777
-0.0320604 -0.34992 -0.304243
0.0091998 -0.350666 -0.303865
0.246752 -0.351535 -0.305734
0.282143 -0.350349 -0.300716
-0.40724 -0.346153 -0.299165
-0.383952 -0.346508 -0.297761
-0.37245 -0.347189 -0.304012
-0.333887 -0.348095 -0.313364
-0.203878 -0.345925 -0.310798
0.0910642 -0.345989 -0.306032
0.155886 -0.347733 -0.293967
0.206204 -0.348625 -0.30003
0.322773 -0.348812 -0.294705
0.388733 -0.348809 -0.289608
0.427935 -0.346891 -0.303341
-0.450201 -0.342782 -0.304837
0.465413 -0.342186 -0.296705
-0.450319 -0.339065 -0.293763
0.47802 -0.338815 -0.302519
0.483093 -0.335757 -0.304412
0.488315 -0.326589 -0.303608
0.487455 -0.313315 -0.299742
-0.443877 -0.304124 -0.296668
-0.425211 -0.291799 -0.296666
-0.407506 -0.282835 -0.297993
0.44122 -0.276497 -0.299256
0.433597 -0.276128 -0.293532
0.402182 -0.269785 -0.294706
-0.381971 -0.264535 -0.305419
0.342563 -0.254776 -0.298859
0.325173 -0.248028 -0.292934
-0.369921 -0.249449 -0.303624
-0.369086 -0.23787 -0.290631
0.314775 -0.214108 -0.304923
-0.35685 -0.198255 -0.296441
-0.35354 -0.187126 -0.299305
0.328063 -0.171463 -0.302662
-0.346641 -0.173778 -0.302349
-0.345583 -0.163072 -0.302011
0.324306 -0.153641 -0.303117
0.32906 -0.162309 -0.301862
-0.334799 -0.160143 -0.302635
0.330564 -0.143742 -0.297542
-0.307083 -0.145534 -0.301923
0.321859 -0.133052 -0.299124
0.292731 -0.13386 -0.302631
0.287365 -0.120455 -0.298162
-0.301625 -0.10873 -0.301412
0.269792 -0.0715222 -0.298491
-0.300291 -0.0566367 -0.299919
0.266 -0.0548531 -0.299427
-0.158613 -0.0319204 -0.301014
-0.189555 -0.028079 -0.298338
-0.16288 -0.0353882 -0.301437
0.179145 -0.0323065 -0.312315
0.209414 -0.022248 -0.299672
-0.25272 -0.0215793 -0.304619
0.140955 -0.0121211 -0.298054
-0.113591 0.0131179 -0.302892
0.101437 0.0378777 -0.291743
0.0719848 0.0379874 -0.307665
-0.0587898 0.0699415 -0.29834
0.0156466 0.083855 -0.296067
-0.00395779 0.083797 -0.298645
-0.0215854 -0.35141 -0.296394
0.0166152 -0.351815 -0.29351
0.0255453 -0.349794 -0.303763
0.259843 -0.351414 -0.311093
-0.283612 -0.349671 -0.301088
-0.255681 -0.349228 -0.307519
-0.250013 -0.349133 -0.299788
-0.200659 -0.34858 -0.292212
-0.174218 -0.348444 -0.290086
-0.157059 -0.348897 -0.288339
-0.0712137 -0.349527 -0.296412
0.116083 -0.349019 -0.293513
0.172154 -0.345525 -0.299625
0.183881 -0.347443 -0.29461
0.198924 -0.349565 -0.290148
0.345416 -0.348638 -0.310054
0.406801 -0.348328 -0.287921
0.445507 -0.345462 -0.293414
-0.434908 -0.33991 -0.291465
0.470005 -0.337892 -0.291484
-0.460138 -0.332372 -0.29819
0.47752 -0.332902 -0.293614
-0.457443 -0.314405 -0.299482
-0.432183 -0.29597 -0.298249
0.475369 -0.290964 -0.295559
0.454055 -0.28243 -0.292972
-0.390895 -0.272937 -0.296325
0.417927 -0.272148 -0.296132
0.313928 -0.239584 -0.306353
-0.359593 -0.213689 -0.297248
-0.360493 -0.203684 -0.29377
-0.360893 -0.182852 -0.295765
0.33156 -0.179545 -0.297026
-0.348336 -0.154502 -0.299691
-0.331228 -0.142299 -0.296121
-0.347402 -0.144454 -0.295884
-0.318982 -0.143139 -0.2998
0.329651 -0.136373 -0.295934
-0.319784 -0.132374 -0.297428
-0.307829 -0.126855 -0.296911
-0.304584 -0.0890866 -0.297002
0.280669 -0.0762207 -0.289692
0.261402 -0.0461734 -0.298252
-0.296603 -0.0400577 -0.294173
-0.285611 -0.0325881 -0.296966
-0.202327 -0.01468 -0.288017
0.167804 -0.0218981 -0.298359
-0.256946 -0.00509553 -0.290374
0.0568054 0.0587194 -0.298962
-0.0832039 0.0594275 -0.290453
0.0473862 0.0715098 -0.294973
-0.037428 0.0722696 -0.304273
-0.00372561 -0.351819 -0.297625
0.0404239 -0.351216 -0.291196
0.257312 -0.351117 -0.288088
-0.30019 -0.34971 -0.298043
-0.235457 -0.348692 -0.302119
-0.140888 -0.349031 -0.288932
0.290477 -0.349626 -0.295702
-0.398347 -0.344806 -0.293675
-0.377253 -0.344518 -0.288156
0.453454 -0.342796 -0.288635
-0.426925 -0.342436 -0.292739
-0.457649 -0.326358 -0.295302
-0.438249 -0.304832 -0.291532
0.483381 -0.296978 -0.298221
0.466035 -0.286382 -0.2933
-0.412538 -0.286898 -0.293248
0.444098 -0.278894 -0.292451
0.39096 -0.267813 -0.29379
-0.377297 -0.259564 -0.302466
0.367738 -0.261692 -0.291349
-0.374055 -0.254124 -0.290188
0.353003 -0.258326 -0.287156
-0.363483 -0.223305 -0.292049
0.31309 -0.22703 -0.301494
-0.366977 -0.188797 -0.289913
-0.365276 -0.175564 -0.291246
0.335561 -0.165867 -0.29538
-0.356612 -0.164906 -0.296945
-0.359116 -0.154307 -0.294146
0.336701 -0.15172 -0.293275
-0.354456 -0.138663 -0.29246
-0.329772 -0.128332 -0.293328
-0.341914 -0.129993 -0.294002
0.337649 -0.128124 -0.284309
-0.316934 -0.118556 -0.291705
0.284991 -0.105443 -0.292442
-0.306632 -0.107602 -0.29398
-0.310524 -0.0789908 -0.285403
0.278375 -0.0865567 -0.296328
-0.309247 -0.0645235 -0.282236
0.250841 -0.0384802 -0.297095
-0.172595 -0.0276194 -0.293003
-0.166444 -0.0348986 -0.301127
0.242974 -0.0290013 -0.29517
0.238193 -0.0225999 -0.291895
-0.284788 -0.0228163 -0.291629
-0.201194 -0.0237324 -0.300489
-0.270454 -0.0197584 -0.298879
-0.15894 -0.0129368 -0.289356
0.199739 -0.0175805 -0.295217
-0.218931 -0.0158559 -0.29907
-0.130146 0.00888522 -0.298404
0.11287 0.0189365 -0.298193
-0.125509 0.0215078 -0.292597
-0.11852 0.0319194 -0.290894
-0.109061 0.0244798 -0.297548
-0.103869 0.0434675 -0.290033
0.0847443 0.044276 -0.294379
-0.0698597 0.0701734 -0.293103
0.0602762 0.0715874 -0.284613
0.0343427 0.0758294 -0.298486
-0.04819 0.0761358 -0.299319
-0.044907 0.097934 -0.283935
-0.0426475 -0.351516 -0.289432
0.0922253 -0.350206 -0.287655
0.236423 -0.350808 -0.298786
0.240564 -0.350911 -0.286264
-0.352167 -0.345474 -0.283449
-0.34457 -0.347756 -0.294685
-0.335327 -0.347037 -0.284221
-0.317747 -0.348739 -0.289649
-0.269916 -0.349346 -0.284447
-0.226915 -0.348837 -0.298542
-0.215631 -0.348356 -0.300088
-0.165145 -0.347953 -0.298547
-0.127444 -0.348888 -0.297202
0.132342 -0.348288 -0.292412
0.330459 -0.348598 -0.280791
0.371236 -0.349028 -0.294527
0.42894 -0.346837 -0.291009
-0.414341 -0.342462 -0.291274
-0.361078 -0.346804 -0.29146
-0.450661 -0.334261 -0.289823
-0.415448 -0.338195 -0.286934
0.470582 -0.331926 -0.287109
-0.452657 -0.328548 -0.289595
0.480296 -0.327204 -0.292684
0.483125 -0.312276 -0.293657
0.476987 -0.298462 -0.290201
-0.398528 -0.279996 -0.290404
0.432933 -0.282116 -0.285407
0.411205 -0.272735 -0.29068
0.391743 -0.270682 -0.28633
-0.376512 -0.261767 -0.277335
0.38015 -0.266066 -0.288044
0.333954 -0.250815 -0.288644
-0.371812 -0.248152 -0.293781
0.318734 -0.244879 -0.301765
0.317675 -0.218875 -0.293983
-0.366857 -0.206015 -0.284959
0.335272 -0.188003 -0.287893
-0.352454 -0.12555 -0.290153
0.32812 -0.12144 -0.287727
0.311849 -0.124015 -0.295728
0.304456 -0.115452 -0.293059
-0.336025 -0.117596 -0.289137
-0.327007 -0.108111 -0.28879
-0.312574 -0.109196 -0.289978
0.291293 -0.101509 -0.286104
-0.311196 -0.098432 -0.288087
0.280563 -0.0548583 -0.284388
-0.192535 -0.0145496 -0.284333
-0.179855 -0.0155174 -0.281815
-0.164569 -0.0254756 -0.293278
0.167733 -0.015181 -0.287817
0.185969 -0.0177596 -0.292926
0.157008 -0.0182502 -0.294239
0.213518 -0.0146665 -0.288216
-0.219174 -0.00375501 -0.284792
-0.2449 -0.00246935 -0.28876
-0.229079 -0.00454069 -0.289738
0.128187 0.0188206 -0.287582
-0.122121 0.0379191 -0.285445
-0.100205 0.0623269 -0.279888
0.0474385 0.0813851 -0.286149
-0.0201953 0.0896446 -0.293632
0.00813835 0.101203 -0.285291
-0.0314789 0.0980583 -0.28716
-0.0653579 -0.351114 -0.286423
-0.0226069 -0.352454 -0.284794
-0.0097623 -0.352742 -0.276987
0.0631958 -0.351417 -0.281926
0.0784693 -0.349977 -0.292395
0.10417 -0.34949 -0.292316
-0.30542 -0.348208 -0.272611
0.147774 -0.346212 -0.300435
-0.396865 -0.341407 -0.286908
-0.391034 -0.338368 -0.282178
0.439349 -0.342481 -0.282286
-0.442307 -0.334337 -0.285813
-0.448904 -0.315787 -0.290464
-0.434952 -0.315978 -0.282773
0.472205 -0.316391 -0.286025
-0.424425 -0.303456 -0.283875
0.46371 -0.307061 -0.281922
0.465598 -0.29466 -0.286153
-0.412702 -0.294959 -0.282881
0.453425 -0.288234 -0.285399
-0.398114 -0.286501 -0.280115
0.408892 -0.276022 -0.285234
0.387347 -0.272532 -0.28248
0.356425 -0.262701 -0.280605
0.341243 -0.254554 -0.281012
-0.373201 -0.243612 -0.279209
0.318934 -0.239658 -0.283658
0.318666 -0.223005 -0.28545
0.330223 -0.200432 -0.288339
-0.372535 -0.168206 -0.281743
0.339879 -0.164787 -0.289467
-0.368078 -0.153175 -0.288224
0.346646 -0.155586 -0.284437
-0.370276 -0.143679 -0.285474
-0.371389 -0.134264 -0.280903
-0.358182 -0.118394 -0.283073
-0.347158 -0.11396 -0.284937
0.340676 -0.113449 -0.279429
0.323146 -0.117548 -0.286938
0.292893 -0.106684 -0.289437
-0.333526 -0.0956557 -0.280912
0.287418 -0.0959497 -0.286367
-0.316643 -0.0966743 -0.284452
-0.316599 -0.083296 -0.281047
0.286648 -0.0835123 -0.283505
-0.307853 -0.0546999 -0.283084
-0.302639 -0.0428195 -0.288487
-0.299134 -0.0244125 -0.2847
0.23728 -0.0154729 -0.284343
-0.168116 -0.0154657 -0.283275
0.157281 -0.00688634 -0.284603
0.202996 -0.00840905 -0.280631
-0.162566 -0.00104602 -0.282507
-0.229729 0.00202941 -0.280337
0.140515 0.00664308 -0.284145
-0.14569 0.00490092 -0.289325
0.119179 0.0288243 -0.28694
-0.109614 0.0506422 -0.282068
0.073058 0.062565 -0.284975
-0.0693349 0.082384 -0.283253
0.0469869 0.0961857 -0.275992
-0.0578313 0.0892719 -0.283517
-0.0752508 -0.351415 -0.276152
0.0810588 -0.351698 -0.275443
0.129112 -0.350354 -0.275131
0.271031 -0.350207 -0.280952
-0.294073 -0.349184 -0.275363
-0.276357 -0.348819 -0.271714
-0.245197 -0.349032 -0.282286
-0.217793 -0.348775 -0.273244
-0.136903 -0.349081 -0.274721
0.343834 -0.348479 -0.271997
0.389914 -0.348746 -0.277924
-0.36989 -0.342688 -0.283106
-0.352901 -0.3433 -0.278505
-0.326204 -0.347226 -0.279652
0.455592 -0.338446 -0.283589
-0.440589 -0.327166 -0.281671
-0.431633 -0.327138 -0.281132
-0.425216 -0.331223 -0.283865
-0.417526 -0.324046 -0.279907
-0.407542 -0.330777 -0.281371
-0.435729 -0.321417 -0.282007
-0.427798 -0.321146 -0.279408
0.448554 -0.302382 -0.277388
0.419209 -0.286965 -0.278573
-0.387446 -0.274757 -0.282508
-0.379928 -0.265233 -0.284547
0.370671 -0.267004 -0.28182
0.328014 -0.249478 -0.281854
0.32271 -0.245126 -0.279406
0.317156 -0.23471 -0.285321
-0.371092 -0.231288 -0.282428
0.3273 -0.218638 -0.271503
-0.373507 -0.178902 -0.281893
-0.36012 -0.107301 -0.279145
-0.351059 -0.108974 -0.28281
0.307672 -0.104384 -0.283084
0.324568 -0.0959424 -0.273864
-0.314998 -0.069309 -0.276671
0.289025 -0.0770758 -0.281825
0.293094 -0.0685803 -0.275356
-0.312982 -0.0428578 -0.273157
0.266525 -0.0358147 -0.285713
0.251254 -0.0207398 -0.283051
-0.287385 -0.0130662 -0.282096
-0.280634 0.00377985 -0.274336
-0.272756 -0.00697847 -0.285506
-0.26199 0.00245382 -0.281552
-0.249826 0.00472494 -0.281484
0.116083 0.0404998 -0.278536
0.0787031 0.0720273 -0.275338
-0.0838839 0.0766141 -0.276187
0.0318654 0.0915296 -0.284905
-0.036967 0.104701 -0.28042
-0.0109022 0.102081 -0.285765
-0.120453 -0.349734 -0.27976
-0.0799804 -0.351087 -0.28273
0.00439628 -0.352549 -0.281158
0.00642777 -0.353021 -0.270614
0.0237219 -0.352357 -0.284623
0.0990894 -0.351242 -0.272964
0.148699 -0.351299 -0.270031
0.172863 -0.350561 -0.279068
0.217617 -0.350266 -0.287553
0.238836 -0.350841 -0.271088
-0.322471 -0.345842 -0.271639
0.412007 -0.347059 -0.27645
-0.333679 -0.343281 -0.273251
0.423899 -0.344788 -0.278297
-0.371993 -0.335819 -0.276659
0.438751 -0.338538 -0.276914
0.454048 -0.334353 -0.280255
-0.395762 -0.321315 -0.276225
-0.394967 -0.332095 -0.279579
0.454253 -0.325888 -0.27723
-0.418967 -0.314879 -0.277765
-0.413399 -0.317574 -0.276395
-0.407297 -0.310515 -0.274215
-0.414031 -0.307487 -0.277225
0.438559 -0.292078 -0.279358
-0.398228 -0.29279 -0.275417
0.398701 -0.284364 -0.276076
-0.388003 -0.280953 -0.275538
0.377994 -0.275655 -0.276685
-0.379901 -0.272536 -0.27153
0.355971 -0.267741 -0.274613
-0.376744 -0.201232 -0.272071
0.347454 -0.173619 -0.275656
-0.374352 -0.157837 -0.282066
0.352989 -0.157919 -0.276088
0.351095 -0.143951 -0.27866
-0.380625 -0.135741 -0.272539
-0.37584 -0.125244 -0.27594
0.334895 -0.107064 -0.279344
0.312165 -0.0873341 -0.271069
-0.342259 -0.0895835 -0.276525
0.299688 -0.0890607 -0.274142
-0.331552 -0.0794463 -0.277042
0.294172 -0.0804969 -0.274607
0.286505 -0.0638217 -0.282705
0.275654 -0.0442242 -0.284037
0.277573 -0.0371686 -0.279475
0.261803 -0.0193661 -0.275691
-0.174002 -0.0141521 -0.279799
-0.211398 -0.000855552 -0.273768
-0.170604 -0.00850221 -0.277069
0.172668 -0.00558101 -0.275269
0.163146 0.00231304 -0.271885
0.223031 -0.00397653 -0.276745
0.153914 0.00656027 -0.275059
-0.234202 0.0115238 -0.268771
-0.254995 0.0122815 -0.271038
-0.158456 0.0141686 -0.275427
-0.146276 0.0173548 -0.281936
0.141631 0.017271 -0.276899
0.129169 0.0371904 -0.273098
-0.137218 0.0315002 -0.27952
0.102253 0.0481619 -0.280735
0.0875005 0.053935 -0.282441
0.0350778 0.103687 -0.273698
0.0227132 0.107972 -0.273691
-0.0150296 0.122286 -0.269244
-0.00236397 0.11199 -0.276686
-0.102727 -0.350277 -0.284703
0.0362848 -0.352434 -0.277353
-0.236009 -0.348758 -0.274925
-0.182813 -0.349132 -0.256805
0.302827 -0.349148 -0.276959
0.370892 -0.349368 -0.271072
0.425972 -0.341084 -0.271489
-0.35549 -0.337654 -0.272601
0.439276 -0.331857 -0.272029
0.441645 -0.323118 -0.270899
-0.381122 -0.327868 -0.275315
-0.399437 -0.313296 -0.272879
-0.385052 -0.315547 -0.273045
0.4412 -0.314836 -0.271046
-0.402609 -0.304071 -0.273229
0.433619 -0.304954 -0.271422
-0.393644 -0.303554 -0.270414
0.404689 -0.293882 -0.270631
0.344973 -0.265165 -0.26846
0.331136 -0.254655 -0.271541
-0.372382 -0.24568 -0.270507
0.324817 -0.23289 -0.267729
-0.374713 -0.228846 -0.26892
-0.376332 -0.211542 -0.266786
-0.372878 -0.214011 -0.275723
-0.376397 -0.19351 -0.276085
0.346459 -0.188537 -0.269011
-0.381752 -0.166235 -0.271658
-0.381126 -0.151693 -0.274176
0.351237 -0.131926 -0.273243
-0.365594 -0.0955273 -0.27003
0.341879 -0.100879 -0.272813
-0.353702 -0.0986379 -0.27903
-0.356754 -0.0737219 -0.267022
0.296047 -0.0861209 -0.274727
-0.322042 -0.0648009 -0.271444
-0.316118 -0.0518181 -0.271408
0.289559 -0.037945 -0.266329
-0.306532 -0.0292435 -0.280133
-0.309966 -0.0206507 -0.268948
0.277336 -0.0270221 -0.273147
0.259882 -0.011528 -0.271386
-0.174375 -0.00484399 -0.270209
-0.180291 -0.00700849 -0.269751
0.187014 -0.00483778 -0.277133
0.24763 -0.00341341 -0.269189
0.180751 0.00162467 -0.264632
0.217613 0.000817251 -0.271711
0.125419 0.0551306 -0.261673
0.0640852 0.0836303 -0.272804
-0.0718534 0.0914364 -0.27611
-0.064244 0.105535 -0.267254
-0.11239 -0.350458 -0.266607
-0.025418 -0.352626 -0.270508
-0.011908 -0.352496 -0.250983
0.162208 -0.35139 -0.271734
0.1712 -0.351628 -0.266893
0.181455 -0.351617 -0.26853
0.20535 -0.350682 -0.274788
-0.198286 -0.348861 -0.272296
-0.153055 -0.349159 -0.270032
0.277993 -0.349768 -0.272342
0.376331 -0.349371 -0.259265
0.39945 -0.348103 -0.26288
0.412572 -0.343024 -0.262923
-0.344845 -0.336248 -0.267859
-0.382267 -0.299419 -0.268174
0.412466 -0.303126 -0.264666
-0.385163 -0.286883 -0.271118
0.385132 -0.28494 -0.272292
0.369359 -0.281942 -0.267704
0.357186 -0.275576 -0.268152
-0.375058 -0.262737 -0.263826
0.334554 -0.259028 -0.265945
0.326636 -0.25022 -0.273365
0.32485 -0.24562 -0.269886
-0.382744 -0.179887 -0.26601
-0.387737 -0.152152 -0.263697
0.360658 -0.140449 -0.262505
0.362337 -0.129795 -0.2617
-0.382861 -0.121342 -0.267012
0.350943 -0.112489 -0.272077
0.329819 -0.0865443 -0.263321
-0.354846 -0.0871861 -0.271963
-0.343398 -0.0757725 -0.270238
-0.333027 -0.0697262 -0.271622
-0.335239 -0.0547838 -0.265024
0.295156 -0.0569224 -0.268296
-0.322307 -0.0520406 -0.265429
-0.318764 -0.0426891 -0.263839
-0.303956 -0.0144222 -0.271939
0.258145 -0.00332542 -0.264394
-0.196505 -0.00172508 -0.268119
-0.189456 -0.00369704 -0.266231
-0.176932 0.000312098 -0.264842
0.236524 -0.0051359 -0.273904
0.191998 0.0012986 -0.267671
0.204171 -0.0002562 -0.269586
-0.215617 0.00609548 -0.264919
-0.169688 0.0167927 -0.264073
-0.156708 0.0278761 -0.270984
-0.137565 0.0401799 -0.272565
0.114429 0.0572288 -0.267924
0.104691 0.0614036 -0.269831
-0.106198 0.0685637 -0.268371
-0.0896125 0.0788303 -0.270713
0.0747522 0.0860101 -0.265112
-0.054259 0.117182 -0.264302
-0.0473696 0.109172 -0.272865
-0.0892212 -0.351455 -0.268289
-0.03379 -0.35291 -0.259384
0.0649445 -0.351994 -0.264046
0.129668 -0.352043 -0.256431
0.222543 -0.351136 -0.265652
0.24136 -0.350906 -0.259435
-0.289498 -0.348212 -0.266011
-0.262553 -0.348486 -0.268343
-0.226254 -0.348363 -0.258792
-0.134522 -0.349848 -0.259612
0.263699 -0.349694 -0.259687
0.340836 -0.348678 -0.257498
0.35485 -0.349036 -0.266795
-0.313055 -0.345109 -0.265063
0.422587 -0.337206 -0.265027
0.42685 -0.325589 -0.261412
-0.346007 -0.324167 -0.259599
0.424139 -0.303336 -0.269088
-0.368606 -0.314684 -0.267496
-0.377527 -0.295178 -0.265329
-0.370339 -0.298514 -0.264148
-0.375273 -0.287209 -0.264926
0.396911 -0.295389 -0.265609
0.381388 -0.288713 -0.26574
-0.372937 -0.275039 -0.263118
-0.378165 -0.27482 -0.26852
-0.373151 -0.250619 -0.264811
-0.37471 -0.234261 -0.263916
0.342224 -0.203806 -0.258525
-0.3882 -0.162451 -0.261385
0.360858 -0.151298 -0.262517
-0.384378 -0.109002 -0.259963
-0.364074 -0.0748916 -0.263537
0.308067 -0.0791543 -0.262754
0.303211 -0.0713286 -0.260602
-0.348289 -0.0562672 -0.259939
0.274797 -0.0127929 -0.260529
-0.309847 -0.00503342 -0.262314
-0.195798 0.00514936 -0.257564
-0.184988 0.00305628 -0.259771
-0.291097 0.00704472 -0.26431
0.224702 0.0089318 -0.25904
-0.268827 0.0178879 -0.263013
-0.25804 0.0196632 -0.262519
0.137067 0.037296 -0.267171
-0.11485 0.0580404 -0.272201
-0.116173 0.0716567 -0.257556
0.0937193 0.0714849 -0.265853
-0.087538 0.0972353 -0.258559
0.0586592 0.0981732 -0.266725
0.0428805 0.109085 -0.265543
0.0124565 0.115826 -0.269405
-0.0037489 0.1269 -0.264947
-0.0634335 -0.352093 -0.273046
-0.0220463 -0.35276 -0.255875
0.0437985 -0.351947 -0.263594
0.116797 -0.351602 -0.267371
0.199031 -0.35166 -0.261876
-0.271407 -0.347188 -0.252954
0.277755 -0.347783 -0.253395
0.293996 -0.348698 -0.258523
0.418606 -0.336035 -0.258824
-0.32945 -0.3377 -0.262462
-0.333566 -0.327107 -0.254721
0.4289 -0.31335 -0.263197
0.418578 -0.313387 -0.255424
-0.359769 -0.322999 -0.265882
0.406078 -0.30394 -0.257096
-0.385174 -0.179002 -0.260441
0.356386 -0.168746 -0.261908
-0.390065 -0.117942 -0.25504
0.363663 -0.113881 -0.260483
-0.377681 -0.0983222 -0.262901
0.348646 -0.0952416 -0.263372
0.349498 -0.0851862 -0.258332
0.340476 -0.0900203 -0.263614
-0.36737 -0.0836148 -0.263122
0.317889 -0.0785281 -0.260394
-0.358288 -0.0599885 -0.258864
0.300681 -0.0505521 -0.260494
-0.32452 -0.044071 -0.259971
-0.318012 -0.0289754 -0.257047
0.233625 0.00723208 -0.259038
-0.298771 0.0173113 -0.252724
-0.185797 0.00855604 -0.257774
0.201515 0.0128592 -0.251289
-0.213124 0.0110269 -0.252705
-0.231874 0.0159729 -0.261328
-0.177009 0.0263451 -0.254513
0.15695 0.0151344 -0.267021
-0.140841 0.0592349 -0.255476
-0.128426 0.0577495 -0.265644
0.107125 0.0711971 -0.258942
-0.0790053 0.104243 -0.259657
-0.0703162 0.119842 -0.252462
0.0312038 0.12111 -0.263175
0.016698 0.13061 -0.258514
-0.110027 -0.35048 -0.248118
-0.0501889 -0.352472 -0.26556
0.0841832 -0.351886 -0.253227
0.10053 -0.351752 -0.259517
0.265886 -0.348466 -0.252548
0.2986 -0.346415 -0.250281
0.308878 -0.348501 -0.259665
0.316687 -0.347605 -0.254031
0.366209 -0.348449 -0.243545
0.403757 -0.346933 -0.261059
0.421293 -0.317648 -0.255269
-0.352715 -0.31079 -0.256577
0.403543 -0.302885 -0.253013
0.38627 -0.292333 -0.257971
-0.365864 -0.282934 -0.257392
0.356207 -0.2763 -0.261828
0.341873 -0.263824 -0.254124
-0.372314 -0.251636 -0.251254
0.328848 -0.246954 -0.254891
-0.376968 -0.216578 -0.248763
-0.375889 -0.21759 -0.261883
-0.381585 -0.196141 -0.260287
0.356042 -0.183107 -0.250122
0.362325 -0.165628 -0.253587
-0.392694 -0.157322 -0.249277
0.366174 -0.152309 -0.250071
0.369156 -0.118434 -0.254686
0.363249 -0.0997611 -0.253539
0.35847 -0.0897667 -0.255063
0.31133 -0.069868 -0.254016
-0.367545 -0.0637503 -0.255206
-0.335456 -0.04201 -0.256458
-0.323716 -0.0274662 -0.250607
0.284936 -0.0210068 -0.259517
-0.3054 0.0123695 -0.252068
0.274571 -0.00193211 -0.252504
0.257107 0.00228406 -0.258793
-0.192879 0.00701056 -0.254862
0.174074 0.00431296 -0.263699
0.214237 0.0132815 -0.24999
-0.284069 0.0164625 -0.258687
-0.260909 0.0252468 -0.254407
0.164782 0.0212832 -0.254059
-0.162934 0.0374957 -0.259355
-0.145492 0.0493575 -0.259545
0.136037 0.0505687 -0.258869
0.132115 0.0607432 -0.251618
0.0858022 0.0913867 -0.252435
0.0755632 0.102839 -0.25327
0.0681275 0.102486 -0.258907
-0.0809255 0.113287 -0.252294
-0.0530002 0.128002 -0.254664
-0.032567 0.126985 -0.262062
-0.0907263 -0.351051 -0.255268
0.00681336 -0.352445 -0.255065
0.075237 -0.352064 -0.256171
0.25267 -0.348494 -0.249447
0.344313 -0.347794 -0.248215
0.358148 -0.34894 -0.253081
0.387582 -0.34875 -0.255088
-0.288477 -0.346424 -0.257171
0.411319 -0.341139 -0.252738
0.420749 -0.323264 -0.252594
0.415918 -0.31672 -0.245718
-0.356192 -0.29495 -0.252587
0.389533 -0.292296 -0.245109
0.36908 -0.283434 -0.26072
-0.371211 -0.263138 -0.254432
0.33281 -0.255344 -0.252306
-0.373013 -0.237983 -0.246305
0.33367 -0.21896 -0.254804
-0.388792 -0.171299 -0.253052
-0.391239 -0.140765 -0.258175
-0.380425 -0.0789825 -0.251339
0.352997 -0.075639 -0.249462
0.332412 -0.0745635 -0.254324
0.340692 -0.0707976 -0.247823
0.318448 -0.0637606 -0.246986
0.324729 -0.0704249 -0.254112
0.305648 -0.0576708 -0.253977
0.301423 -0.0433806 -0.256827
-0.362426 -0.0487044 -0.252632
0.292726 -0.0294526 -0.256175
-0.320658 -0.0216103 -0.251302
0.291784 -0.00894215 -0.247944
-0.315653 0.00262048 -0.247862
0.245829 0.0137132 -0.248124
-0.205632 0.0122991 -0.247389
-0.192128 0.0136604 -0.249204
0.18824 0.0095767 -0.252458
0.263139 0.00832313 -0.251028
-0.223293 0.0193216 -0.247745
-0.219029 0.0223184 -0.239867
0.226808 0.0170091 -0.247472
-0.184751 0.0179449 -0.25449
0.171491 0.0161551 -0.252831
-0.246628 0.0239539 -0.252074
-0.27437 0.0276484 -0.248225
0.161353 0.0388497 -0.245416
-0.17305 0.0433754 -0.249837
-0.153061 0.0562796 -0.251345
0.103217 0.0825279 -0.251902
-0.114778 0.0850029 -0.249305
-0.101505 0.0861137 -0.258337
-0.0922573 0.113014 -0.243357
0.0638717 0.114608 -0.249803
0.0443576 0.124002 -0.253464
0.0345684 0.139287 -0.245372
-0.038897 0.141749 -0.248933
-0.0281568 0.142184 -0.251335
-0.127365 -0.349731 -0.259963
-0.0825558 -0.351325 -0.253597
-0.0693339 -0.35233 -0.253115
0.0220003 -0.352386 -0.259699
0.107934 -0.35198 -0.243622
0.132979 -0.352209 -0.233873
0.184436 -0.352542 -0.252745
0.203768 -0.351814 -0.241725
-0.246404 -0.348139 -0.252835
-0.224497 -0.348269 -0.244643
-0.20922 -0.348554 -0.255209
-0.162355 -0.349092 -0.253809
0.241907 -0.349126 -0.244645
0.386001 -0.348345 -0.241321
-0.296806 -0.34343 -0.253187
0.275359 -0.343331 -0.243595
0.29265 -0.342742 -0.243767
0.327048 -0.346469 -0.247161
0.407807 -0.342295 -0.235878
0.413233 -0.338222 -0.243176
0.417525 -0.323719 -0.245371
0.411649 -0.310091 -0.248534
-0.335394 -0.303271 -0.239222
-0.360862 -0.27848 -0.25057
0.380414 -0.287905 -0.240661
0.355763 -0.275239 -0.244503
0.343145 -0.267193 -0.242486
0.333209 -0.258612 -0.242624
0.329532 -0.247835 -0.246542
0.328946 -0.236497 -0.248415
-0.375095 -0.226428 -0.253241
-0.396717 -0.148728 -0.23862
0.369685 -0.145081 -0.245799
-0.39883 -0.119675 -0.241901
-0.39507 -0.11297 -0.247552
-0.387114 -0.0858694 -0.247447
0.359424 -0.0814389 -0.250106
0.333202 -0.064006 -0.245407
0.314651 -0.0617441 -0.24646
0.310287 -0.0586822 -0.248098
-0.36798 -0.055262 -0.252481
-0.350831 -0.0374978 -0.249086
-0.343497 -0.0286142 -0.246049
-0.339034 -0.0333034 -0.250977
0.296262 -0.0172306 -0.247648
-0.322873 -0.0156096 -0.243951
-0.31828 -0.00988828 -0.255086
-0.196056 0.0143291 -0.244373
0.18481 0.016507 -0.243365
0.235994 0.0155878 -0.249283
-0.258808 0.0358571 -0.234351
-0.184349 0.0378995 -0.241072
-0.152161 0.0659696 -0.245202
-0.132965 0.0713804 -0.248858
-0.00573246 0.143865 -0.25227
0.00592489 0.141963 -0.253041
-0.13822 -0.350116 -0.235541
-0.00598348 -0.351678 -0.237172
0.0202007 -0.350978 -0.234734
0.03841 -0.351272 -0.246495
0.139404 -0.352573 -0.244071
0.145981 -0.352733 -0.235838
0.162481 -0.352923 -0.25141
0.22568 -0.351311 -0.246293
0.397832 -0.346728 -0.23744
-0.266505 -0.346063 -0.242662
0.346538 -0.346304 -0.242746
0.309363 -0.343118 -0.24337
-0.30648 -0.337197 -0.249133
-0.302145 -0.333115 -0.2422
-0.321704 -0.327928 -0.248904
-0.33828 -0.310976 -0.246584
0.352302 -0.275701 -0.238424
0.328163 -0.248705 -0.241022
-0.369285 -0.248016 -0.2401
0.330166 -0.23279 -0.242269
-0.387261 -0.18779 -0.232524
0.352055 -0.194533 -0.245976
-0.396166 -0.139378 -0.24717
0.369851 -0.103845 -0.247493
-0.39381 -0.0865277 -0.23859
-0.39363 -0.0743989 -0.236857
-0.376253 -0.0589523 -0.246157
0.308812 -0.037916 -0.240204
-0.364851 -0.0391095 -0.244866
0.303339 -0.0326823 -0.244211
-0.316704 0.00929928 -0.241992
0.269937 0.0132453 -0.241734
-0.312266 0.0149108 -0.243039
0.25992 0.0151437 -0.244314
-0.294339 0.023722 -0.248323
-0.189019 0.0244208 -0.244853
-0.285838 0.0328665 -0.239727
-0.246206 0.0354606 -0.233785
0.173639 0.0288636 -0.240573
0.148213 0.037739 -0.257933
-0.17703 0.0472262 -0.242705
-0.164728 0.0562164 -0.243208
0.142275 0.0577806 -0.246573
0.138663 0.0692821 -0.241199
0.120528 0.0814027 -0.238867
0.0598407 0.127402 -0.242593
-0.0669344 0.138083 -0.240311
-0.0300518 -0.352012 -0.228065
0.0615326 -0.35124 -0.240235
0.163009 -0.352919 -0.235246
0.187997 -0.352162 -0.243688
-0.205304 -0.348368 -0.233012
-0.195209 -0.348312 -0.240179
-0.176957 -0.349396 -0.241575
-0.166002 -0.349504 -0.231747
0.239596 -0.345998 -0.233451
0.257382 -0.343498 -0.240283
0.323558 -0.342894 -0.240898
-0.291112 -0.336764 -0.239592
-0.27875 -0.343301 -0.241297
0.281402 -0.335574 -0.237835
0.319512 -0.337744 -0.237653
0.342429 -0.342415 -0.237174
0.296288 -0.336177 -0.238853
0.41619 -0.333773 -0.248494
0.417819 -0.32697 -0.240386
0.396253 -0.296707 -0.234478
0.365847 -0.28226 -0.237457
-0.356441 -0.265486 -0.234618
0.334339 -0.224176 -0.235726
-0.387829 -0.181246 -0.242813
0.375435 -0.138336 -0.236378
0.373742 -0.106578 -0.242401
-0.385043 -0.0705336 -0.245918
-0.387109 -0.0565342 -0.236326
-0.371095 -0.0391685 -0.240701
-0.371905 -0.0310685 -0.236823
-0.332514 -0.0151417 -0.2358
-0.327841 -0.0224643 -0.245119
-0.321614 -0.000888677 -0.236588
0.287193 0.00659339 -0.233087
0.280927 0.00705507 -0.238163
0.284851 0.00550027 -0.238083
0.190824 0.0152793 -0.242118
-0.307593 0.0234042 -0.239199
-0.194329 0.0203568 -0.240557
-0.199799 0.0238204 -0.234343
0.252814 0.0208081 -0.235295
0.235771 0.0234726 -0.235925
-0.268086 0.0348313 -0.237724
0.15696 0.0533822 -0.237131
0.120799 0.0698049 -0.249611
0.13708 0.0844564 -0.227924
-0.12922 0.08368 -0.242764
0.113668 0.100859 -0.228933
-0.116312 0.0952395 -0.238796
0.104244 0.091718 -0.241159
0.09326 0.0993108 -0.238769
-0.105514 0.0998584 -0.24349
-0.0792102 0.124655 -0.243045
-0.0493989 0.152621 -0.233826
0.0374479 0.145276 -0.238682
-0.00935869 0.156927 -0.239481
0.00262411 0.157394 -0.237981
-0.0361951 0.154757 -0.237715
-0.0974703 -0.351147 -0.238363
-0.0462535 -0.352295 -0.238799
0.221091 -0.351055 -0.235231
-0.252052 -0.346269 -0.23532
0.23184 -0.349606 -0.23781
0.372821 -0.346875 -0.235438
-0.265353 -0.342787 -0.230684
0.334307 -0.336429 -0.234607
0.357663 -0.342573 -0.232632
0.420118 -0.333613 -0.233381
0.286565 -0.326312 -0.234166
0.419163 -0.32843 -0.232997
0.418056 -0.319431 -0.231638
0.414627 -0.310536 -0.234394
0.409669 -0.305236 -0.235508
0.404259 -0.301802 -0.231219
0.338443 -0.269568 -0.236952
0.328155 -0.260507 -0.2362
0.328489 -0.266821 -0.2336
0.328065 -0.236355 -0.235046
-0.371945 -0.224705 -0.225452
-0.375876 -0.220206 -0.233952
-0.382625 -0.200843 -0.236922
0.358757 -0.189307 -0.230283
-0.392076 -0.16774 -0.239398
-0.39669 -0.106312 -0.243321
0.378261 -0.0993781 -0.237379
-0.400346 -0.0951143 -0.228595
0.376569 -0.0891197 -0.236363
0.364759 -0.0751535 -0.237431
0.356644 -0.0661001 -0.236195
0.324479 -0.0572713 -0.237152
0.337639 -0.0596656 -0.236632
-0.385639 -0.0457904 -0.234558
-0.373104 -0.0252075 -0.231903
-0.347728 -0.020599 -0.237679
0.297776 -0.00282027 -0.234425
-0.324149 0.0141138 -0.232418
-0.206142 0.0208868 -0.235636
0.193311 0.0189469 -0.233945
0.198432 0.0175215 -0.235243
-0.207835 0.0248959 -0.228357
-0.203179 0.0272001 -0.227189
0.189553 0.0225181 -0.236313
0.210955 0.0179252 -0.238607
-0.230758 0.0276204 -0.235737
0.184923 0.023516 -0.235868
-0.279037 0.0431642 -0.226958
0.167698 0.0494165 -0.229716
-0.171945 0.0606717 -0.232924
-0.159818 0.0744361 -0.232259
-0.141142 0.0756493 -0.241545
-0.0792858 -0.351514 -0.238525
-0.0602763 -0.352185 -0.242647
0.0429708 -0.350805 -0.23248
0.0867519 -0.351928 -0.233284
-0.250291 -0.344045 -0.223988
-0.191466 -0.348708 -0.226869
0.386188 -0.346624 -0.232915
0.398485 -0.344495 -0.229713
0.362701 -0.338453 -0.228387
0.414799 -0.338047 -0.230221
0.417072 -0.334691 -0.226621
0.262628 -0.335928 -0.234128
0.355923 -0.330675 -0.227601
-0.290465 -0.321659 -0.224349
0.336826 -0.330389 -0.232097
0.334841 -0.318816 -0.230603
0.27082 -0.321245 -0.227987
0.273955 -0.328666 -0.233051
0.321494 -0.32338 -0.233379
0.296178 -0.325443 -0.234714
0.28103 -0.306211 -0.22576
0.307442 -0.313009 -0.232583
-0.322821 -0.31168 -0.236356
0.324507 -0.30562 -0.231699
-0.328423 -0.291933 -0.224175
0.316701 -0.291017 -0.230605
0.378371 -0.290414 -0.231842
0.329662 -0.293916 -0.231131
0.370307 -0.289367 -0.229978
0.343752 -0.286942 -0.230394
0.361134 -0.283993 -0.233291
0.352246 -0.283474 -0.231848
0.331359 -0.275735 -0.231853
-0.34963 -0.276336 -0.233394
0.322676 -0.273154 -0.23092
0.319005 -0.261729 -0.229329
0.323599 -0.258399 -0.232979
0.320541 -0.251419 -0.229007
0.319968 -0.243892 -0.224319
-0.364034 -0.245821 -0.230422
0.339764 -0.213208 -0.227082
-0.380384 -0.207161 -0.230037
0.343571 -0.208309 -0.239068
0.365626 -0.171778 -0.239917
0.380137 -0.122749 -0.227438
0.383622 -0.0946423 -0.227669
0.372263 -0.0749268 -0.230891
0.346441 -0.0558252 -0.230213
-0.39218 -0.0455741 -0.228533
0.315662 -0.0486164 -0.23509
-0.388888 -0.0379616 -0.227491
0.312929 -0.0208547 -0.227045
-0.357259 -0.02001 -0.233983
0.307972 -0.0062725 -0.224524
-0.327067 -0.00493198 -0.229835
-0.32684 0.00299314 -0.225479
0.225536 0.0289444 -0.223278
0.24801 0.0334939 -0.223322
-0.217288 0.0265252 -0.227094
0.189486 0.0281701 -0.225387
0.183751 0.0341833 -0.224525
-0.255457 0.0397503 -0.224621
-0.246612 0.0377618 -0.229706
-0.195422 0.0322144 -0.234133
-0.180354 0.053259 -0.232236
0.127229 0.0914499 -0.227249
0.0883755 0.12372 -0.223266
-0.0960728 0.126409 -0.228926
0.0742367 0.116798 -0.240331
-0.104916 0.112777 -0.234477
0.0769061 0.124983 -0.230087
0.0554385 0.139625 -0.232439
-0.0738658 0.147849 -0.226933
0.0257055 0.147636 -0.241337
0.0283754 0.15788 -0.229491
-0.0217905 0.156015 -0.239678
-0.00175106 0.167286 -0.229913
-0.0867099 -0.351654 -0.220406
-0.0122397 -0.351271 -0.220493
0.0718449 -0.35167 -0.233175
0.109901 -0.352245 -0.221626
-0.241646 -0.347052 -0.233626
-0.154926 -0.350025 -0.22434
0.379605 -0.342972 -0.227504
0.400129 -0.341383 -0.224367
-0.273173 -0.328765 -0.219051
0.379746 -0.333663 -0.222176
0.256659 -0.33193 -0.226722
0.418391 -0.329124 -0.227321
0.347874 -0.309136 -0.227879
0.29062 -0.300687 -0.227555
0.406091 -0.307971 -0.223103
0.364092 -0.298482 -0.225882
0.299277 -0.302536 -0.230052
0.345953 -0.29345 -0.228862
0.390958 -0.298406 -0.226264
-0.344252 -0.287344 -0.235847
0.302882 -0.281232 -0.22551
0.304704 -0.290884 -0.229158
0.31231 -0.267546 -0.226306
0.359505 -0.189514 -0.221532
0.383832 -0.11209 -0.223173
0.386654 -0.100742 -0.218693
-0.395109 -0.0603374 -0.228206
0.361426 -0.0518874 -0.221449
0.324233 -0.049341 -0.229185
0.320986 -0.0367639 -0.223327
-0.379861 -0.0218712 -0.223568
-0.331659 -0.00339271 -0.225823
0.281071 0.0292642 -0.216928
0.263727 0.0217087 -0.231095
-0.309268 0.0299402 -0.228774
0.237564 0.0301752 -0.227217
-0.289509 0.0414055 -0.227377
-0.191641 0.0475574 -0.224782
0.153948 0.0667336 -0.228834
-0.134504 0.0923629 -0.230648
-0.151079 0.0919271 -0.221959
0.0988057 0.109628 -0.227765
0.0724364 0.135791 -0.221386
-0.0588343 0.157771 -0.225458
-0.129392 -0.350469 -0.226332
-0.0442435 -0.352038 -0.221993
0.0913275 -0.352179 -0.220066
-0.224831 -0.347516 -0.225934
0.222533 -0.349658 -0.223214
-0.2735 -0.337334 -0.228689
0.244974 -0.341571 -0.228724
0.382812 -0.338586 -0.223524
0.398507 -0.33533 -0.219494
0.407922 -0.334394 -0.220098
0.268834 -0.310944 -0.218042
0.413567 -0.318111 -0.2221
-0.306123 -0.303111 -0.216561
0.274206 -0.30636 -0.220882
0.374576 -0.311938 -0.221372
0.412534 -0.310529 -0.227452
-0.317774 -0.304407 -0.225601
0.281723 -0.290709 -0.215143
0.378456 -0.298065 -0.223927
0.286275 -0.295438 -0.223474
0.29775 -0.278881 -0.22171
0.312988 -0.253068 -0.220902
-0.390885 -0.175556 -0.225095
0.367114 -0.177189 -0.220869
0.377046 -0.150169 -0.220424
-0.399174 -0.146319 -0.222477
-0.402753 -0.127948 -0.229627
0.383386 -0.0823706 -0.219822
0.378643 -0.0764184 -0.224684
0.367303 -0.0599357 -0.22582
0.338532 -0.0482303 -0.227302
0.323759 -0.0409521 -0.222084
0.32862 -0.0432802 -0.221291
-0.397575 -0.0315312 -0.213676
0.31649 -0.027637 -0.226739
-0.348869 -0.00780762 -0.227585
-0.330611 0.00610998 -0.217784
0.304045 0.0056483 -0.220948
0.295397 0.0140434 -0.220054
-0.321798 0.0201963 -0.230715
0.202529 0.0240792 -0.224428
0.270776 0.0191332 -0.2316
-0.206806 0.0305323 -0.219879
0.193503 0.0372866 -0.212261
-0.232099 0.035559 -0.214296
-0.200153 0.0439054 -0.216928
-0.183964 0.0643859 -0.222785
-0.173598 0.0747881 -0.221507
-0.162196 0.0830186 -0.224177
-0.120567 0.106249 -0.224954
-0.113665 0.116016 -0.22255
-0.0339332 0.184023 -0.215073
-0.0348849 0.164623 -0.230523
-0.114576 -0.351012 -0.22034
0.00501251 -0.350715 -0.221582
0.137092 -0.352844 -0.22169
0.192671 -0.352567 -0.220062
0.212556 -0.351557 -0.219567
-0.223016 -0.346496 -0.213139
-0.181543 -0.34888 -0.219453
-0.17165 -0.348891 -0.208298
0.22638 -0.346668 -0.213129
0.234609 -0.34467 -0.221716
-0.262885 -0.335295 -0.216942
0.400432 -0.326458 -0.215532
0.258661 -0.323337 -0.217524
0.413186 -0.327753 -0.219618
0.379458 -0.325128 -0.22087
0.406867 -0.321907 -0.215967
0.400872 -0.312785 -0.217265
0.379984 -0.30684 -0.219883
0.393101 -0.303754 -0.220738
-0.320439 -0.293305 -0.218221
-0.375093 -0.216015 -0.225264
0.332334 -0.216925 -0.207769
-0.386155 -0.189499 -0.219638
0.353374 -0.19599 -0.216883
0.367471 -0.17829 -0.210775
-0.395613 -0.159357 -0.219838
-0.404128 -0.126987 -0.216816
0.380593 -0.134213 -0.218415
0.378297 -0.0642968 -0.217431
0.373953 -0.0522415 -0.208362
-0.371534 -0.0162896 -0.224364
-0.374865 -0.0061607 -0.215337
-0.336011 0.00261634 -0.217188
-0.329587 0.0168476 -0.218314
0.216002 0.028963 -0.221067
-0.318058 0.0319711 -0.219469
-0.213021 0.0294123 -0.218157
0.265096 0.0325777 -0.218604
0.238874 0.0345487 -0.219564
-0.301013 0.0402658 -0.222032
-0.264882 0.0461444 -0.214623
0.1653 0.0627451 -0.222208
0.148843 0.0920171 -0.209432
0.130928 0.100987 -0.214351
-0.141368 0.100104 -0.22101
-0.130134 0.112288 -0.214264
0.111263 0.11187 -0.2171
-0.0837722 0.151703 -0.216688
0.0628306 0.146993 -0.219585
0.03752 0.156579 -0.226443
0.0330007 0.169258 -0.218064
-0.0146839 0.178657 -0.220357
-0.0978492 -0.351691 -0.213435
0.0161209 -0.350586 -0.213781
0.168583 -0.35315 -0.207114
0.17763 -0.352653 -0.229187
-0.23905 -0.344835 -0.216078
0.391668 -0.314272 -0.21518
0.290877 -0.277398 -0.214095
-0.338754 -0.271267 -0.217609
0.312501 -0.248102 -0.216551
-0.359649 -0.234618 -0.215884
0.32056 -0.231022 -0.210142
0.326585 -0.229555 -0.220399
-0.38402 -0.185922 -0.205244
0.372312 -0.165013 -0.221166
0.384326 -0.142124 -0.205444
-0.409354 -0.100307 -0.205763
-0.405296 -0.116423 -0.220545
-0.407111 -0.0905369 -0.214947
0.389974 -0.0771596 -0.207427
-0.406909 -0.0542114 -0.206372
0.348732 -0.0480812 -0.219962
0.363102 -0.0467107 -0.21022
0.34109 -0.0402565 -0.213415
-0.383407 -0.00939865 -0.212509
0.315079 -0.000479792 -0.20705
-0.354847 -0.00143006 -0.218285
-0.333472 0.0252396 -0.208706
0.199805 0.0275655 -0.218966
0.209028 0.0305219 -0.21001
-0.205215 0.0366697 -0.213892
0.252112 0.039977 -0.207872
-0.311511 0.0444716 -0.211712
-0.303296 0.0484435 -0.20607
-0.284414 0.0476609 -0.213728
0.173891 0.0541834 -0.218297
-0.181482 0.0795984 -0.208775
-0.111208 0.128115 -0.213536
-0.0971566 0.137172 -0.219535
-0.0705574 0.161326 -0.217492
0.00874081 0.175661 -0.218854
-0.0476356 0.172387 -0.221039
-0.0162358 0.189609 -0.211342
-0.130863 -0.351043 -0.210661
-0.122712 -0.351389 -0.201382
-0.0777093 -0.351575 -0.207037
0.122178 -0.352681 -0.208517
0.198225 -0.352437 -0.202849
0.244207 -0.335742 -0.215503
-0.273898 -0.320742 -0.211841
-0.332268 -0.259603 -0.20203
0.298331 -0.26443 -0.212789
-0.34737 -0.24793 -0.209904
-0.350112 -0.23452 -0.201042
-0.374188 -0.209436 -0.212181
0.376659 -0.16201 -0.208358
-0.407446 -0.0698494 -0.210075
0.331292 -0.035942 -0.210314
-0.372362 0.0017965 -0.20778
-0.355071 0.0112309 -0.205944
-0.35778 0.0132111 -0.202878
-0.340381 0.0121025 -0.20643
-0.337159 0.0134419 -0.207493
-0.327747 0.0235057 -0.216943
0.229818 0.0348975 -0.207105
0.283928 0.0374326 -0.206241
-0.25672 0.0485594 -0.200294
0.185105 0.0532776 -0.207768
-0.14587 0.108771 -0.207892
0.0935765 0.128093 -0.21266
0.0842648 0.140706 -0.204966
0.0189008 0.184746 -0.208898
-0.0599699 -0.351658 -0.214913
-0.0401791 -0.351574 -0.212245
0.00177508 -0.350698 -0.201347
0.0409884 -0.350857 -0.212458
0.0575683 -0.350832 -0.214053
-0.198842 -0.34782 -0.218286
-0.250435 -0.338862 -0.21096
-0.259346 -0.322766 -0.200163
0.271032 -0.299775 -0.20501
-0.313057 -0.28602 -0.207152
0.349075 -0.196969 -0.201591
-0.379755 -0.202303 -0.216037
-0.377844 -0.195236 -0.20292
0.36721 -0.177807 -0.200056
-0.390722 -0.168367 -0.201973
-0.394831 -0.159838 -0.208885
0.389231 -0.118741 -0.210551
0.388175 -0.0907356 -0.208291
-0.409955 -0.0813892 -0.203718
0.386473 -0.0647927 -0.208847
0.383199 -0.0539567 -0.199757
0.370355 -0.0390164 -0.199508
-0.403913 -0.0566315 -0.213747
0.329454 -0.0239301 -0.20039
0.334925 -0.028344 -0.201231
0.323032 -0.0120093 -0.203136
0.305695 0.0135486 -0.208752
-0.224371 0.0339597 -0.211006
-0.216146 0.0355362 -0.205438
-0.211582 0.0363146 -0.205439
-0.232608 0.0385319 -0.198656
-0.210526 0.0404087 -0.20221
-0.249907 0.0410525 -0.21489
-0.311799 0.0479321 -0.20512
-0.285717 0.0534671 -0.199309
-0.207078 0.0509662 -0.203182
0.169236 0.0808313 -0.201511
0.16058 0.0736287 -0.2152
0.162465 0.0898764 -0.198334
-0.168646 0.0909023 -0.210383
-0.16753 0.103056 -0.197911
0.124837 0.106499 -0.212324
-0.154296 0.113367 -0.19817
0.109857 0.126647 -0.202161
-0.124366 0.123759 -0.208405
-0.111854 0.139624 -0.200124
0.0783331 0.139665 -0.210122
-0.0954114 0.151524 -0.204532
0.0721934 0.151218 -0.205608
0.0537291 0.159481 -0.212468
0.00822996 0.189653 -0.207161
-0.00969201 -0.350473 -0.200584
0.0222721 -0.350354 -0.204968
0.135844 -0.353282 -0.203935
-0.201442 -0.347413 -0.203005
-0.164198 -0.349004 -0.196327
0.230429 -0.343671 -0.20618
-0.23658 -0.336556 -0.190943
-0.253529 -0.333388 -0.206029
0.251447 -0.324329 -0.203192
-0.268633 -0.312083 -0.198204
-0.289089 -0.301195 -0.204138
0.285543 -0.276837 -0.202564
0.306467 -0.246784 -0.205689
-0.357194 -0.21673 -0.193317
0.339781 -0.204399 -0.191021
-0.398178 -0.147327 -0.205422
0.392212 -0.132926 -0.190055
-0.401033 -0.137801 -0.201643
-0.334417 0.035031 -0.195913
0.299747 0.0268399 -0.203554
-0.216696 0.0375506 -0.196138
0.204399 0.035325 -0.202365
0.220713 0.0329193 -0.207193
0.231032 0.0400536 -0.197204
-0.327142 0.0367453 -0.203106
0.241529 0.0410391 -0.201679
0.257007 0.048076 -0.195229
0.26968 0.0403124 -0.203125
-0.313444 0.0487603 -0.198817
0.191895 0.0433247 -0.207871
-0.267602 0.0517011 -0.199325
-0.202955 0.0567382 -0.205121
0.180877 0.0640091 -0.2017
-0.190083 0.0685213 -0.210667
0.128197 0.119152 -0.197854
0.102266 0.138902 -0.195728
0.0475624 0.172823 -0.205046
0.0362751 0.182151 -0.201065
-0.0604761 0.174311 -0.211343
-0.0443702 0.192834 -0.201919
-0.011176 0.201223 -0.200218
-0.0953317 -0.351678 -0.198498
-0.0280258 -0.35083 -0.20244
0.0556383 -0.35139 -0.193057
0.075885 -0.351637 -0.214918
0.214237 -0.350955 -0.206755
-0.228851 -0.341847 -0.192032
-0.233163 -0.34251 -0.200035
0.238016 -0.336953 -0.2015
0.260018 -0.314866 -0.205136
-0.280335 -0.294746 -0.190697
0.276121 -0.287328 -0.190573
0.289775 -0.265106 -0.190832
0.299008 -0.253488 -0.198538
0.316555 -0.227066 -0.194678
-0.388911 -0.163438 -0.187075
0.377356 -0.163449 -0.197152
0.391781 -0.0981628 -0.200926
0.391294 -0.0685337 -0.203319
0.388808 -0.0583064 -0.194355
-0.411777 -0.0537238 -0.188965
0.379158 -0.0423537 -0.195436
-0.40422 -0.0336108 -0.201286
0.34542 -0.0318883 -0.204959
0.358484 -0.033792 -0.199521
0.33864 -0.0222128 -0.190609
-0.398958 -0.0244021 -0.206079
0.330121 -0.013737 -0.190322
-0.391027 0.000130947 -0.193815
0.322529 0.00100461 -0.195329
-0.384179 0.0038285 -0.197009
-0.361129 0.0182616 -0.192212
-0.340015 0.0222418 -0.198294
