0.478754 -0.249253 0.14522
0.464246 -0.249253 0.186381
0.446239 -0.249253 0.226136
0.424824 -0.249253 0.264163
0.400191 -0.249253 0.300189
0.372497 -0.249253 0.333919
0.341971 -0.249253 0.36511
0.308861 -0.249253 0.393543
0.273379 -0.249253 0.418953
0.235833 -0.249253 0.441201
0.196476 -0.249253 0.460062
0.15564 -0.249253 0.475459
0.113604 -0.249253 0.487195
0.0707102 -0.249253 0.495241
0.0272784 -0.249253 0.499526
-0.0163614 -0.249253 0.5
-0.059877 -0.249253 0.496675
-0.102935 -0.249253 0.489555
-0.14522 -0.249253 0.478754
-0.186381 -0.249253 0.464246
-0.226136 -0.249253 0.446239
-0.264163 -0.249253 0.424824
-0.300189 -0.249253 0.400191
-0.333919 -0.249253 0.372497
-0.36511 -0.249253 0.341971
-0.393543 -0.249253 0.308861
-0.418953 -0.249253 0.273379
-0.441201 -0.249253 0.235833
-0.460062 -0.249253 0.196476
-0.475459 -0.249253 0.15564
-0.487195 -0.249253 0.113604
-0.495241 -0.249253 0.0707102
-0.499526 -0.249253 0.0272784
-0.5 -0.249253 -0.0163614
-0.496675 -0.249253 -0.059877
-0.489555 -0.249253 -0.102935
-0.478754 -0.249253 -0.14522
-0.464246 -0.249253 -0.186381
-0.446239 -0.249253 -0.226136
-0.424824 -0.249253 -0.264163
-0.400191 -0.249253 -0.300189
-0.372497 -0.249253 -0.333919
-0.341971 -0.249253 -0.36511
-0.308861 -0.249253 -0.393543
-0.273379 -0.249253 -0.418953
-0.235833 -0.249253 -0.441201
-0.196476 -0.249253 -0.460062
-0.15564 -0.249253 -0.475459
-0.113604 -0.249253 -0.487195
-0.0707102 -0.249253 -0.495241
-0.0272784 -0.249253 -0.499526
0.0163614 -0.249253 -0.5
0.059877 -0.249253 -0.496675
0.102935 -0.249253 -0.489555
0.14522 -0.249253 -0.478754
0.186381 -0.249253 -0.464246
0.226136 -0.249253 -0.446239
0.264163 -0.249253 -0.424824
0.300189 -0.249253 -0.400191
0.333919 -0.249253 -0.372497
0.36511 -0.249253 -0.341971
0.393543 -0.249253 -0.308861
0.418953 -0.249253 -0.273379
0.441201 -0.249253 -0.235833
0.460062 -0.249253 -0.196476
0.475459 -0.249253 -0.15564
0.487195 -0.249253 -0.113604
0.495241 -0.249253 -0.0707102
0.499526 -0.249253 -0.0272784
0.5 -0.249253 0.0163614
0.496675 -0.249253 0.059877
0.489555 -0.249253 0.102935
0.16373 0.220394 -0.0131934
0.120907 0.233231 -0.011772
0.14392 0.226423 0.0235877
0.102823 0.236808 0.0270546
0.0777682 0.242344 -0.00450088
0.0912388 0.237636 -0.0466816
0.130848 0.228043 -0.050592
0.119727 0.229673 0.0614638
0.158306 0.218017 0.063553
0.202535 0.205143 -0.00306976
0.0655878 0.236764 -0.0839026
0.0503748 0.244559 -0.0388861
0.169261 0.215484 -0.0531471
0.181648 0.21277 0.032174
0.072687 0.24025 0.0521548
0.0475482 0.246153 0.0201151
0.0544037 0.229553 -0.123802
0.0215361 0.248795 -0.0119093
0.147759 0.217209 -0.0892955
0.132412 0.219607 0.100211
0.21985 0.195978 0.0289537
0.105649 0.228697 -0.0887539
0.205335 0.201675 -0.0437023
0.173519 0.206906 0.09552
0.0964034 0.222362 0.125535
0.254282 0.177871 0.0162968
0.090451 0.23197 0.0880449
0.0149262 0.233461 -0.119609
0.0226204 0.220895 -0.161166
0.237671 0.187134 -0.0213306
0.190005 0.201967 -0.0871036
0.208149 0.189135 0.107991
0.25829 0.17176 -0.0571973
0.277157 0.163273 -0.0190436
0.191329 0.180419 -0.160803
0.172387 0.200369 -0.123985
0.0197556 0.246057 0.048575
0.193696 0.180142 0.158654
0.171599 0.198138 0.132776
0.148009 0.198531 -0.157607
0.0591849 0.231551 0.113417
0.0110203 0.240425 0.0880521
0.157378 0.189229 0.17364
-0.00182985 0.246757 -0.0465885
-0.00693747 0.249253 0.0161747
0.130224 0.214269 -0.124769
0.132395 0.209493 0.139277
-0.0233059 0.23006 -0.131141
-0.0493607 0.246035 0.0183768
0.204829 0.198689 0.0685589
0.287007 0.156194 0.024528
0.2262 0.186672 -0.0775907
0.0926852 0.221918 -0.129997
0.109547 0.205647 -0.168758
0.243808 0.180278 0.0576271
0.245303 0.172082 0.0969796
0.04834 0.240309 0.0750214
-0.0217599 0.245386 0.0534395
0.0941895 0.177583 -0.237276
0.282704 0.149504 -0.0901291
0.212303 0.183486 -0.121561
-0.0282671 0.248055 -0.0184979
-0.0548706 0.240496 0.0691422
-0.0164595 0.217602 -0.170894
0.0662403 0.215467 -0.164904
0.0821058 0.19764 -0.202474
0.320585 0.129718 0.0301249
0.0444555 0.221156 0.155862
0.227646 0.171175 0.13573
-0.0262165 0.238319 0.0956461
0.0265405 0.241768 -0.0768283
0.0835563 0.213193 0.163307
0.0102442 0.216648 0.174085
0.0494624 0.207831 0.190095
0.117863 0.199548 0.179011
-0.0535087 0.21857 -0.160259
-0.0155136 0.240473 -0.086953
-0.047655 0.242754 -0.0583874
0.248776 0.167635 -0.106642
-0.041931 0.207827 -0.191431
0.279903 0.147781 0.104878
0.277833 0.157954 0.0646871
0.0841915 0.19623 0.20473
-0.012873 0.203018 0.206408
-0.0554977 0.229893 0.1218
-0.0153508 0.228891 0.136472
0.0233151 0.230354 0.130299
-0.0554194 0.234859 -0.100446
0.233359 0.16172 -0.153497
0.220864 0.159822 0.17543
0.298805 0.144762 -0.0519575
0.16153 0.180641 -0.190374
0.313125 0.137016 -0.0116723
0.0411274 0.204674 -0.199334
0.18297 0.166326 0.202111
0.212521 0.157561 -0.190351
0.221881 0.142214 0.210513
0.00201955 0.20707 -0.197913
0.269953 0.145475 -0.134785
0.0594691 0.183043 0.238666
-0.0664778 0.203983 0.193482
0.318525 0.122239 -0.0866026
-0.0805338 0.223606 -0.131833
0.3107 0.132512 0.0694616
0.260482 0.14995 0.140172
0.349931 0.0937778 -0.0822777
0.260579 0.135459 -0.175404
0.347373 0.106559 -0.00330472
0.351721 0.0998914 0.0392055
0.254586 0.138437 0.177732
-0.0794633 0.203877 -0.188777
-0.079657 0.240498 0.0382707
-0.0340063 0.216386 0.171493
-0.0828488 0.187552 -0.222441
-0.0651555 0.243874 -0.020491
-0.0836722 0.233259 0.0878603
-0.108693 0.202556 0.177089
-0.0426653 0.190158 -0.2286
0.124905 0.186377 -0.204702
0.138479 0.164906 -0.237781
0.180048 0.159944 -0.217182
0.139405 0.179019 0.210642
0.154218 0.156411 0.242494
0.191836 0.142547 0.237999
-0.11094 0.208418 -0.160057
-0.0935136 0.231573 -0.0872277
-0.11883 0.189855 -0.20063
0.236629 0.134404 -0.208575
0.208935 0.133572 -0.237961
0.25491 0.118284 0.215578
0.333985 0.116197 -0.0455683
0.224937 0.117216 0.248568
-0.0881375 0.237924 -0.0498317
-0.0485933 0.190389 0.226997
0.365479 0.0853228 -0.0401281
-0.126279 0.230951 -0.0310759
-0.13547 0.228982 0.0203786
0.172062 0.14188 -0.253884
0.0776385 0.160912 0.270401
0.117529 0.153055 0.267725
0.104015 0.176521 0.23505
0.137529 0.129091 0.291895
0.00469313 0.190441 -0.232189
0.0222974 0.170399 -0.26574
0.105971 0.154619 -0.270276
-0.100384 0.238068 0.000791851
0.335931 0.106834 0.0852356
-0.0754714 0.217463 0.154524
0.366865 0.0751976 0.0837866
0.378008 0.0704114 0.0451558
-0.0671044 0.171475 -0.25588
0.311024 0.121849 0.111243
-0.0955703 0.186927 0.218496
0.296828 0.11331 -0.164333
0.338129 0.093343 0.122263
-0.129882 0.210189 0.139689
0.0504135 0.185707 -0.235905
0.291868 0.124607 0.147437
0.303262 0.123662 -0.125444
0.279488 0.108185 -0.201425
0.316229 0.0805391 0.193844
0.286185 0.111363 0.185816
0.0267414 0.195639 0.220729
-0.0439185 0.169811 0.263599
-0.0989249 0.223059 0.120983
0.286767 0.0896147 0.221982
-0.112489 0.232198 0.0555953
0.377735 0.0740935 0.00313282
-0.00515542 0.182747 0.246038
0.329783 0.0465684 -0.22369
0.328054 0.0839919 -0.166604
0.311017 0.0779871 -0.20614
0.27963 0.0860134 -0.23611
0.363411 0.0643782 0.127237
-0.114022 0.16912 -0.242805
-0.150023 0.221072 0.061566
0.0357701 0.145896 -0.299635
-0.136859 0.182348 0.205337
0.0656102 0.162409 -0.271257
0.114278 0.127329 -0.3041
0.32035 0.0962943 0.156443
0.165773 0.112165 -0.298225
0.197464 0.114981 -0.274174
-0.127614 0.22249 0.0934485
0.0973564 0.135152 0.300245
0.380519 0.0608492 -0.0773649
0.168336 0.131247 0.271948
-0.151053 0.203186 -0.141224
-0.120671 0.219384 -0.115568
0.202414 0.106106 0.282018
0.246479 0.113208 -0.233296
0.234017 0.0972733 -0.267844
0.0318652 0.16802 0.268547
0.256561 0.0954007 0.248678
0.23559 0.0825592 0.284518
-0.132094 0.225072 -0.0714471
-0.0221596 0.173164 -0.261064
-0.00678082 0.151408 -0.294013
0.404392 0.0406354 0.00151708
0.0503057 0.11349 -0.336133
0.0744101 0.135557 -0.306165
-0.00678337 0.159588 0.282602
-0.168807 0.215535 -0.0540132
-0.163174 0.207454 0.110918
-0.0493531 0.151976 -0.288875
-0.0939454 0.15109 -0.278747
-0.161942 0.21062 -0.0990759
0.344781 0.0433191 0.204663
-0.0841259 0.169556 0.253959
0.355034 0.0620987 -0.153327
0.405025 0.0365088 0.0413049
0.0541754 0.143614 0.300004
0.0493104 0.116253 0.333297
0.333122 0.0967337 -0.126381
-0.136332 0.145759 -0.268724
0.0880236 0.113395 0.328663
-0.0380083 0.145189 0.299719
0.380289 0.0308499 -0.153403
0.363799 0.0685561 -0.115476
-0.127036 0.165221 0.243039
-0.0765374 0.129054 -0.312479
0.428281 0.00507532 0.0145651
-0.184563 0.190479 0.141378
-0.189795 0.19052 -0.134111
0.0925972 0.105642 -0.335744
0.142913 0.137706 -0.277626
0.262395 0.0692193 -0.275964
0.392727 0.0302798 0.120158
0.395879 0.0399554 0.0816817
-0.17349 0.144974 -0.247942
-0.166589 0.12168 -0.28528
0.329594 0.0263744 0.248465
0.313816 0.0579528 0.231145
0.296408 0.0351463 0.278697
-0.151952 0.194024 0.16662
-0.1678 0.159907 0.227023
-0.159442 0.140166 0.264194
-0.190101 0.158279 -0.212098
-0.151254 0.169664 -0.220767
-0.077342 0.147084 0.289342
-0.153231 0.188516 -0.179343
0.13656 0.0994902 -0.326973
0.268943 0.0370921 -0.303692
0.209277 0.0846866 -0.302336
0.237648 0.0580662 -0.309344
0.126637 0.10374 0.326483
0.280889 0.0683359 0.258068
0.229615 0.0531605 0.320183
0.261457 0.0547508 0.292769
0.165655 0.106233 0.305312
0.407932 0.0253547 -0.0734488
0.393752 0.052062 -0.0377932
0.420277 0.0158642 -0.0310144
-0.225647 0.151191 -0.189981
-0.204142 0.201514 -0.0492738
0.111026 0.0765387 -0.358827
0.17683 0.0805198 -0.327012
-0.209561 0.19904 0.0490602
-0.222056 0.131883 -0.229369
0.162901 0.0786574 0.336153
0.199458 0.0811423 0.312809
-0.17801 0.17523 0.188131
0.207727 0.0510764 -0.33692
0.391858 0.0340727 -0.113974
0.260263 0.0248202 0.322179
-0.175493 0.215293 0.028112
0.358849 0.00860991 0.226079
-0.207163 0.190425 0.105434
-0.233076 0.171914 0.124867
-0.230828 0.190802 0.0155263
-0.185921 0.205065 0.0803192
0.00971021 0.126159 -0.325456
-0.025892 0.10005 -0.352028
-0.03289 0.127624 -0.321932
0.349626 0.0475169 -0.189979
0.29833 0.0542662 -0.255334
0.299113 0.0268652 -0.284143
0.329614 0.0204694 -0.254862
-0.161347 0.221112 -0.0121534
-0.232491 0.183213 0.0783037
0.424879 0.00316511 0.0585176
0.0154541 0.098177 -0.354772
-0.0668608 0.102693 -0.343708
-0.119665 0.125547 -0.302972
-0.152015 0.101443 -0.316824
-0.117158 0.145451 0.27796
-0.147094 0.119254 0.298647
0.420364 -0.00482256 -0.103196
0.357934 -0.0161607 -0.252695
0.356901 0.0150591 -0.221672
-0.199393 0.206267 -0.00585013
0.124366 0.0740894 0.356685
0.0863748 0.08596 0.356839
0.406583 -0.00190334 -0.142398
-0.235277 0.187958 -0.0249491
-0.264465 0.17152 0.00150131
0.29618 -0.00258686 -0.313008
0.0476392 0.0844308 0.365178
0.0810841 0.052385 0.386866
0.123093 0.0426061 0.383662
0.379356 0.0106167 -0.187328
-0.236185 0.182797 -0.0688407
0.268731 -0.014045 -0.345246
0.418228 0.000441188 0.0993104
0.43939 -0.0305727 0.0809752
-0.204037 0.120467 -0.261922
-0.196197 0.0950172 -0.299361
0.325361 -0.00124931 0.281103
0.294762 0.00354654 0.309441
-0.202966 0.1385 0.23572
-0.195311 0.118873 0.27053
0.127033 0.0447452 -0.380679
0.148101 0.0699821 -0.351181
0.182747 0.0345742 -0.365087
0.345664 0.0643365 0.169129
0.197952 0.0490513 0.344666
0.161725 0.0474777 0.364803
0.23289 0.0191791 0.34727
0.383603 -0.0217083 -0.21787
0.328323 -0.0083541 -0.283805
0.397959 0.00555338 0.152997
0.384812 -0.0193734 0.213302
0.386127 -0.0501025 0.239923
0.249082 0.0223175 -0.333087
0.356474 -0.018226 0.25663
-0.0205647 0.123364 0.327895
0.269052 -0.0108146 0.342773
0.0641592 0.0828013 -0.36424
-0.225145 0.168188 -0.149717
-0.198721 0.197397 -0.0916757
0.372285 0.0392276 0.157294
0.374647 0.0162863 0.188817
-0.0742702 0.0912019 0.353497
-0.119085 0.0864391 0.345607
-0.215364 0.168643 0.162323
-0.191511 0.175301 -0.174359
-0.257764 0.173341 0.0450592
0.421589 -0.026139 0.138908
0.405251 -0.0243701 0.178254
-0.264305 0.160015 0.0989167
0.409447 -0.0578323 0.205358
0.239678 -0.0203341 -0.370369
-0.0280667 0.0944136 0.35732
0.0145874 0.13729 0.312121
0.241772 -0.0224325 0.370281
0.428122 -0.0554252 0.160685
-0.0498306 0.067574 0.378915
0.0123853 0.10659 0.34649
-0.106497 0.119527 0.314919
-0.0642116 0.121746 0.323783
0.4333 -0.0120382 -0.0610874
0.442662 -0.0198214 -0.0154576
-0.229358 0.17789 -0.110537
-0.266114 0.161688 -0.0860106
0.445941 -0.0294808 0.0350647
-0.0173398 0.0703336 -0.379659
0.0256866 0.0697162 -0.380021
-0.132505 0.0463995 -0.375929
-0.14142 0.0758379 -0.347323
-0.260945 0.154637 -0.126588
-0.267303 0.167574 -0.0424172
0.221215 0.0148715 -0.358248
-0.100157 0.0597715 0.375189
-0.146253 0.0615027 0.358259
-0.000853388 0.0399218 -0.403853
-0.108356 0.101457 -0.334129
0.20711 -0.0243071 0.392468
-0.0458292 0.0408825 -0.400283
-0.0587673 0.0722667 -0.373597
-0.0899353 0.0417242 -0.391932
-0.0985999 0.0737461 -0.36365
-0.174032 0.0442493 -0.360513
-0.182785 0.0727763 -0.330666
-0.15506 0.0894346 0.328104
-0.19265 0.0639738 0.333557
0.375897 -0.0918697 0.283407
-0.25789 0.142133 -0.166395
-0.293185 0.151148 0.0231686
0.296797 -0.049449 -0.344363
0.441819 -0.0543343 0.117592
0.261301 -0.0542168 -0.374916
0.456545 -0.0688729 0.0801702
0.36246 -0.0538736 0.277023
-0.231041 0.0929102 -0.276388
-0.22593 0.0656867 -0.310543
0.332443 -0.038299 0.302235
0.303428 -0.0365418 0.330471
0.404597 -0.0227824 -0.177731
0.43008 -0.0401197 -0.134699
-0.231544 0.0968028 0.271154
-0.186616 0.0972885 0.30279
0.00669996 0.0762417 0.375104
-0.0146103 0.0516592 0.394775
0.426608 -0.0619955 -0.171956
-0.286425 0.112238 -0.185903
0.345822 -0.0797717 0.313227
0.462019 -0.0826289 -0.0784563
0.0378324 0.0521017 0.39329
-0.243034 0.13687 0.198023
0.405696 -0.0571457 -0.211973
0.443157 -0.0431874 -0.0918399
-0.252738 0.10292 -0.243318
0.161471 0.0131505 -0.391118
0.201312 -0.00975471 -0.386857
0.39731 -0.0898644 0.2513
0.22266 -0.0495639 -0.397314
-0.277947 0.120348 0.182937
0.196279 0.0179295 0.370653
-0.207215 0.155491 0.201349
-0.275567 0.100646 0.221082
0.171647 -0.0225596 0.40927
-0.266987 0.0821976 0.256755
-0.238907 0.118042 0.234924
0.453489 -0.0492023 -0.0481656
0.0444804 0.0424596 -0.399928
0.0834484 0.0522146 -0.38652
0.24042 -0.0605588 0.392043
0.242064 -0.0853848 -0.402118
0.447145 -0.100827 -0.157748
0.47131 -0.120591 -0.0929481
0.469661 -0.0882374 -0.0349808
0.27428 -0.0508394 0.363536
-0.255983 0.123807 -0.206475
0.450781 -0.0779586 -0.120309
0.459535 -0.0561362 -0.00377108
0.462423 -0.0683908 0.0373375
0.463005 -0.124102 -0.130806
-0.285825 0.0899854 -0.224589
-0.171683 0.00875638 0.387793
-0.139622 0.0115978 -0.398526
-0.314761 0.0811235 -0.197388
-0.210781 0.0415874 -0.342866
-0.246629 0.0223267 -0.334996
-0.255967 0.147094 0.157333
-0.307004 0.0908088 0.193132
-0.137313 0.0330398 0.384422
-0.180076 0.0394438 0.361479
-0.218413 0.0179072 0.357141
0.474427 -0.0989434 0.00657485
0.145585 -0.0184173 -0.417678
-0.286749 0.151153 0.0662342
-0.285954 0.135872 0.130586
0.306907 -0.091355 -0.357155
0.158239 0.0142515 0.391725
0.289575 -0.0901583 0.370971
0.351201 -0.0464611 -0.28607
0.117589 0.0136545 -0.406392
0.389435 -0.0924815 -0.264904
0.322071 -0.0352094 -0.31125
0.330578 -0.0678578 -0.322882
-0.298225 0.0591439 -0.251431
-0.2657 0.0721538 -0.270388
-0.296728 0.148737 -0.0184684
-0.319512 0.127912 0.0483227
-0.327768 0.10421 0.120255
0.464724 -0.10375 0.100463
-0.30688 0.109751 0.155019
0.277184 -0.0939818 -0.382041
0.315404 -0.0757621 0.342007
0.429839 -0.0953595 -0.195448
0.380381 -0.053247 -0.251392
0.282523 -0.133748 0.392358
-0.307398 0.0676051 0.228871
-0.0594875 0.00798844 -0.420511
-0.224018 0.074272 0.303057
0.450401 -0.0912365 0.13822
-0.260821 0.046305 -0.302564
0.0587856 0.0178858 0.415309
0.410668 -0.0934396 -0.23144
0.435026 -0.133422 -0.210129
-0.232877 0.0418188 0.328252
0.362249 -0.0859372 -0.297513
-0.297532 0.14388 -0.0615899
0.434524 -0.0904401 0.180725
0.451759 -0.126156 0.16649
0.184881 -0.0373846 -0.411075
0.472904 -0.104886 0.05501
0.227427 -0.118645 -0.422566
0.200666 -0.0805519 -0.422902
0.101639 0.0179412 0.407598
0.202576 -0.0589517 0.412769
0.258639 -0.0985173 0.396785
0.338566 -0.10369 -0.332831
0.222452 -0.095506 0.417397
0.369818 -0.125396 0.307414
0.0150482 0.0209469 0.416717
-0.016815 0.00810388 -0.424513
0.415289 -0.132784 -0.246282
-0.325758 0.125464 0.00638058
0.478492 -0.138981 0.0794399
0.466878 -0.135575 0.127779
0.0286002 0.0113364 -0.422276
-0.0382463 -0.0263765 -0.44212
0.392422 -0.131608 -0.280667
-0.290184 0.127726 -0.144378
-0.0804529 -0.0290439 -0.43758
0.0758778 0.0174047 -0.413124
-0.325833 0.123714 -0.0364292
-0.353465 0.0990487 -0.0111144
-0.338238 0.105752 0.078647
-0.306908 0.129924 0.0944703
-0.0133308 -0.0569174 -0.457776
0.0977155 -0.0165366 -0.429591
-0.351902 0.0967896 -0.0537187
0.158303 -0.0587711 -0.43245
0.419139 -0.0960115 0.217731
0.395234 -0.131851 0.27681
0.418079 -0.170799 0.257102
0.133965 -0.00908492 0.416137
-0.322088 0.10838 -0.123429
-0.175135 0.00553202 -0.388382
-0.203018 -0.0239882 -0.393094
-0.32586 0.116945 -0.0801834
-0.208642 -0.0121771 0.38314
0.00860406 -0.022643 -0.442138
0.478771 -0.12502 -0.053173
-0.216847 0.0077433 -0.365454
-0.254501 -0.0165477 -0.35761
0.169329 -0.0980422 -0.442885
-0.177337 -0.0290475 0.407958
0.183292 -0.0943561 0.43596
-0.245542 -0.0145231 0.362433
0.365969 -0.127809 -0.312971
0.41663 -0.131236 0.243252
0.259103 -0.167404 -0.416749
-0.282655 0.003989 -0.321188
0.0939174 -0.0159308 0.43001
-0.101165 0.00682685 -0.413
-0.163095 -0.0227808 -0.410419
-0.261998 0.0121013 0.331641
-0.295465 0.136686 -0.10366
0.244549 -0.134553 0.417568
0.45636 -0.166491 0.179254
0.193412 -0.132958 -0.443342
0.313852 -0.126569 0.36511
0.05504 -0.0194715 0.437697
0.0810932 -0.0533945 0.450307
-0.139942 -0.00634777 0.409553
-0.19941 -0.0580963 -0.412439
-0.280201 -0.0324824 0.348592
-0.344375 0.0773239 -0.147023
-0.349022 0.0890547 -0.10187
-0.313391 0.101244 -0.161265
0.205119 -0.132369 0.437866
0.332345 -0.136442 -0.351656
0.437109 -0.134301 0.206288
0.265492 -0.127934 -0.402439
0.393862 -0.169909 0.292519
0.409969 -0.209645 0.27996
-0.0655451 0.0400393 0.398066
0.340837 -0.116086 0.33579
-0.105931 -0.0176224 0.42599
-0.143158 -0.0479227 0.430409
0.368007 -0.166756 0.323671
-0.103836 0.0218156 0.402612
0.307167 -0.169785 0.382936
0.269412 -0.170897 0.410843
-0.295184 0.0316412 -0.285131
0.118561 -0.0499372 -0.441185
-0.0677854 0.00580512 0.420536
-0.156359 -0.0874334 0.442427
0.163135 -0.0564556 0.429588
-0.260871 0.0551735 0.293593
0.300533 -0.132738 -0.378262
-0.328673 0.0228429 -0.256543
-0.319903 -0.00152496 -0.290215
0.384013 -0.209169 0.314511
0.339438 -0.161147 0.35221
-0.29441 0.0523626 0.26382
-0.287812 0.0239638 0.299588
0.433052 -0.210901 0.243061
-0.103282 -0.0566158 0.445609
0.35562 -0.206134 0.345844
-0.0672763 -0.0302503 0.44044
-0.0279045 0.0199318 0.416422
-0.346628 0.0553515 -0.184929
0.313247 -0.211479 -0.385631
0.43908 -0.172921 0.220352
0.452947 -0.209139 0.203355
-0.0791022 -0.0886021 0.463089
0.326267 -0.207512 0.374008
-0.066665 -0.105093 -0.470565
-0.123275 -0.0286498 -0.42714
-0.0599462 -0.0651832 -0.45721
0.0332043 -0.0549553 -0.45634
0.292747 -0.170667 -0.394361
-0.0271711 -0.0150388 0.43713
-0.0475634 -0.0605954 0.45684
0.0150584 -0.014396 0.437713
0.292146 -0.20923 0.40163
0.124159 -0.0475001 0.438703
0.451832 -0.172036 -0.192732
0.447846 -0.210548 -0.214634
0.0541276 -0.0173432 -0.436674
-0.326196 0.0509472 -0.225607
0.223557 -0.16343 -0.436112
-0.280978 -0.0443373 -0.355003
0.075119 -0.0514182 -0.450386
-0.296569 -0.00885759 0.318786
0.228488 -0.170608 0.434981
0.133472 -0.091264 -0.452789
0.182212 -0.171548 -0.456456
-0.00825366 -0.0492526 0.454633
0.0348969 -0.0524796 0.455158
0.465279 -0.209811 -0.173732
0.45185 -0.133282 -0.171368
0.477184 -0.163949 -0.111944
-0.105582 -0.101755 -0.462169
0.484847 -0.164049 -0.0722379
-0.104975 -0.0644072 -0.448518
-0.155322 -0.0575729 -0.430617
0.142508 -0.168941 0.46989
-0.185855 -0.0653358 0.421902
0.483794 -0.134058 -0.0136344
-0.232505 -0.0895918 -0.408733
-0.237745 -0.0477773 -0.386639
0.164313 -0.210123 -0.468812
-0.2206 -0.0502169 0.397781
-0.256937 -0.053042 0.377108
-0.373783 0.0693266 -0.0723941
-0.38035 0.0681187 -0.0303787
-0.376734 0.0189218 -0.182858
-0.354529 0.0251935 -0.216014
-0.358657 0.0828557 0.0872282
-0.268135 -0.0801816 -0.382506
0.185495 -0.168743 0.454627
0.141159 -0.0892053 0.44977
0.483514 -0.136347 0.0310724
0.278276 -0.209447 -0.411453
0.255361 -0.209046 0.426055
0.495596 -0.210771 0.0355982
0.488599 -0.173112 0.0556111
-0.354779 0.0738097 0.128446
0.0965091 -0.086134 -0.460114
-0.334212 0.0817282 0.16038
0.152331 -0.13403 -0.45938
-0.33659 0.0596693 0.196136
0.242108 -0.207099 -0.43347
0.162768 -0.129895 0.454725
0.217605 -0.209047 0.446492
0.493987 -0.209148 -0.0518634
-0.292599 -0.0789275 0.363836
0.481217 -0.172993 0.101174
-0.350127 0.100825 0.0358265
0.468436 -0.209449 0.164997
0.11221 -0.126837 -0.468953
0.0544902 -0.0876261 0.467072
0.120578 -0.127033 0.466936
0.466967 -0.169042 -0.151412
0.487713 -0.206171 -0.0924177
0.384547 -0.168833 -0.304391
0.49032 -0.170981 -0.0324491
-0.376402 0.0739673 0.011923
-0.374114 0.0725922 0.0532218
0.470713 -0.173022 0.14187
0.205389 -0.207836 -0.452081
0.410272 -0.171291 -0.269491
0.35675 -0.167508 -0.336284
0.180326 -0.208172 0.462666
-0.384073 0.0537881 0.084578
-0.409497 0.0182189 0.0857701
-0.406336 0.00774737 0.125014
-0.381823 0.0415467 0.128021
0.0739233 -0.131384 -0.477544
-0.311539 -0.0618022 -0.339226
0.100255 -0.0879119 0.459969
0.402601 -0.209574 -0.290411
0.478558 -0.208233 -0.132678
0.375894 -0.208303 -0.324034
0.347068 -0.209834 -0.35508
0.325722 -0.174456 -0.368224
0.496749 -0.210563 -0.00856643
0.491541 -0.172667 0.0110345
-0.311665 -0.0520401 0.333658
0.490433 -0.210436 0.079687
-0.358617 -0.00395035 -0.244504
0.481544 -0.21158 0.122987
-0.31049 -0.0277791 -0.319494
-0.362861 0.0481938 0.163846
0.432747 -0.1719 -0.232096
0.426812 -0.210232 -0.253694
-0.0474032 -0.138842 -0.482178
-0.0270963 -0.0942325 -0.471147
0.0152796 -0.090853 -0.470795
0.0584627 -0.0924133 -0.468263
-0.372741 0.0585265 -0.113883
-0.371125 0.0446775 -0.150874
-0.399859 0.0408052 0.048783
-0.329762 -0.016412 0.291951
-0.400603 0.0436207 0.00687339
-0.303149 -0.0978907 -0.363708
-0.351823 -0.000221993 0.250461
-0.365176 0.0237064 0.199018
-0.219994 -0.0913499 0.416219
-0.258933 -0.0910453 0.393296
-0.276342 -0.128192 0.394951
-0.399115 0.0260169 -0.107688
-0.396209 0.0130767 -0.145337
-0.404598 0.036047 -0.035616
-0.247587 -0.130182 -0.414018
-0.389792 0.0113003 0.165217
-0.377046 -0.00831087 0.218752
-0.337054 0.0344246 0.231454
-0.429662 -0.00147563 -0.0188686
-0.278125 -0.123407 -0.392182
-0.349277 -0.0232263 -0.275199
-0.319411 0.0204053 0.270278
-0.308209 -0.117865 0.367326
-0.416586 -0.0192396 -0.142984
0.140003 -0.170958 -0.471005
0.122366 -0.209725 -0.481436
-0.211733 -0.125963 -0.432061
-0.398305 0.0386473 -0.0704244
0.100889 -0.165307 0.47992
-0.345132 -0.0887567 -0.320438
0.142998 -0.211464 0.475899
-0.184181 -0.106797 0.43852
-0.121309 -0.094411 0.455788
-0.201908 -0.137493 0.439881
0.0760182 -0.124322 0.475408
-0.401922 -0.0183751 -0.180148
-0.334572 -0.120528 -0.344763
-0.134539 -0.133364 -0.463794
-0.0712915 -0.174879 -0.486426
-0.18809 -0.0906099 -0.431161
-0.342513 -0.0561962 0.305569
-0.445466 -0.0518077 -0.0955642
-0.42275 -0.0102755 -0.104104
0.0804489 -0.209178 -0.490163
-0.0265384 -0.173221 -0.490776
-0.092498 -0.139965 -0.475691
-0.14475 -0.0916088 -0.447864
-0.172993 -0.127741 -0.449361
-0.195921 -0.166487 -0.44919
-0.3329 -0.0901237 0.333546
0.10273 -0.20683 0.485682
-0.0343049 -0.0960059 0.471241
-0.34168 -0.0511364 -0.30338
-0.309096 -0.139787 -0.37382
0.0335217 -0.129431 -0.481401
0.00713734 -0.086226 0.469341
0.0295868 -0.123496 0.480096
-0.362847 -0.0372452 0.268916
-0.00745875 -0.130461 -0.48257
-0.306891 -0.185002 -0.386536
-0.420858 0.0128397 0.0236741
0.099764 -0.168664 -0.480762
0.0151209 -0.169154 -0.490732
0.0585181 -0.163478 0.486558
0.0178667 -0.154774 0.487939
-0.344025 -0.130432 0.339025
-0.23337 -0.168549 -0.431462
0.0570285 -0.170385 -0.487969
-0.238085 -0.128062 0.418876
-0.226117 -0.170734 0.435705
0.0619123 -0.20587 0.492471
-0.298356 -0.164388 0.388838
-0.422853 0.00328819 -0.0625628
-0.37112 -0.058821 -0.272797
-0.374797 -0.0958213 -0.289358
-0.360808 -0.165928 -0.332292
-0.215081 -0.208463 -0.447306
-0.37264 -0.0775045 0.282224
-0.365821 -0.129294 -0.315084
-0.263059 -0.167185 0.413892
-0.382115 -0.0111101 -0.212592
-0.107038 -0.130817 0.470309
-0.0620451 -0.126593 0.477391
-0.0491761 -0.211269 -0.494298
-0.365351 -0.110206 0.307817
-0.334345 -0.168642 -0.359566
-0.140901 -0.166436 0.469308
-0.18134 -0.169965 0.455906
-0.153705 -0.130072 0.456922
-0.100628 -0.170246 0.480312
-0.116252 -0.173671 -0.477353
-0.157285 -0.169923 -0.464722
-0.386872 -0.0425166 0.236378
-0.406134 -0.0518591 -0.209021
-0.42814 -0.0196638 0.103077
-0.383881 -0.0422216 -0.241224
-0.060501 -0.16823 0.486757
-0.0140967 -0.127092 0.481517
-0.249022 -0.209222 0.429529
-0.0936265 -0.21119 -0.487755
-0.136645 -0.210684 -0.477386
-0.359494 -0.170456 0.334865
-0.135132 -0.207204 0.477383
-0.172344 -0.209808 0.465575
-0.38178 -0.208385 -0.317553
-0.431673 -0.011193 0.0587531
-0.324003 -0.212182 -0.37694
-0.0967746 -0.210594 0.487053
-0.0185533 -0.213656 0.496746
-0.284697 -0.207132 0.406618
-0.447825 -0.0373856 -0.0299825
-0.417041 -0.0254854 0.151531
-0.400828 -0.0232925 0.188936
-0.396391 -0.0860394 -0.253054
0.0374311 -0.209618 -0.495357
0.0225004 -0.207095 0.495956
-0.38132 -0.15286 0.304623
-0.0585273 -0.207871 0.492859
-0.459033 -0.0686243 -0.0556518
-0.459497 -0.0617092 0.000862034
-0.441885 -0.0238727 0.0161762
-0.454005 -0.0534118 0.0436276
-0.00511219 -0.21028 -0.496747
-0.328294 -0.162633 0.363622
-0.397621 -0.0810457 0.247854
-0.471167 -0.0947757 0.0242768
-0.471325 -0.0947925 -0.0208332
-0.354274 -0.2083 -0.348011
-0.347768 -0.208674 0.354585
-0.441253 -0.0331593 -0.0711781
-0.424355 -0.0554486 -0.171632
-0.447448 -0.050873 0.0833274
-0.427868 -0.0631708 0.171397
-0.271087 -0.169952 -0.409329
-0.210349 -0.208262 0.449524
-0.471136 -0.10541 -0.0627149
-0.376918 -0.206593 0.32301
-0.435054 -0.0942752 -0.184044
-0.415796 -0.127272 -0.244377
-0.394261 -0.130216 -0.279108
-0.0175535 -0.169595 0.490593
-0.176978 -0.208795 -0.463725
-0.252306 -0.207716 -0.427414
-0.394889 -0.118141 0.272827
-0.287183 -0.211905 -0.405554
-0.317538 -0.206127 0.381503
-0.410337 -0.0592985 0.207508
-0.453451 -0.133004 -0.167519
-0.438614 -0.0541965 0.127688
-0.461057 -0.0939192 -0.0998088
-0.437391 -0.0538751 -0.131437
-0.437941 -0.101545 0.18319
-0.466314 -0.132505 -0.126134
-0.418144 -0.135552 0.244331
-0.449886 -0.0943424 -0.143146
-0.449108 -0.0935363 0.144766
-0.417041 -0.092038 -0.22098
-0.388124 -0.168476 -0.300673
-0.479667 -0.173526 -0.1071
-0.407378 -0.20876 -0.28402
-0.476502 -0.137664 -0.0857858
-0.436435 -0.131536 -0.207473
-0.406985 -0.166645 0.27401
-0.458192 -0.0889016 0.104979
-0.400251 -0.203791 0.293011
-0.434112 -0.168991 -0.229534
-0.430229 -0.209023 -0.248186
-0.412904 -0.168429 -0.265585
-0.432537 -0.17546 0.234754
-0.438665 -0.139397 0.207126
-0.424557 -0.210169 0.257977
-0.447364 -0.21173 0.216522
-0.453027 -0.170841 -0.190245
-0.420736 -0.0998228 0.21927
-0.452967 -0.175195 0.192276
-0.465981 -0.0905881 0.0648906
-0.485924 -0.169808 0.0684079
-0.468221 -0.171375 -0.148801
-0.482368 -0.137216 -0.0386064
-0.487332 -0.173251 -0.0622322
-0.495008 -0.21074 -0.0393855
-0.482588 -0.132091 0.00323148
-0.48032 -0.131575 0.0462147
-0.454613 -0.136263 0.166614
-0.467913 -0.172426 0.150402
-0.465411 -0.130014 0.1271
-0.450137 -0.209477 -0.210145
-0.474077 -0.128932 0.0871219
-0.478301 -0.169124 0.109719
-0.478782 -0.210213 0.132227
-0.490871 -0.172978 -0.0170566
-0.494117 -0.209662 0.0481122
-0.488155 -0.209354 0.0906549
-0.466937 -0.209956 -0.169613
-0.496523 -0.210545 0.0049464
-0.490078 -0.170542 0.0256993
-0.489553 -0.210836 -0.0836768
-0.480122 -0.210941 -0.127552
-0.465428 -0.211401 0.174217
