-0.293212 -0.299399 -0.114694
0.0743243 -0.38207 -0.105026
-0.035872 0.388361 0.0902597
0.157923 -0.448037 -0.0902013
-0.0197303 0.237488 -0.251298
0.162732 -0.465256 -0.0926065
-0.128737 0.33168 0.0889797
0.137924 0.267746 -0.211146
-0.0462683 -0.493803 -0.0924774
-0.103709 -0.495506 -0.106476
0.0633307 0.22115 -0.25643
0.0658946 -0.498944 -0.085394
0.278953 0.114036 0.0796344
-0.0136807 0.314661 -0.214211
0.283721 0.389325 0.0020652
-0.150347 0.330238 -0.0974991
-0.167451 -0.413446 -0.247148
0.264538 0.285996 -0.108385
-0.0179529 0.269119 -0.24056
-0.196884 -0.325526 -0.268609
-0.0483571 -0.197735 0.0791243
-0.222952 0.0894571 -0.0981978
0.0363359 0.359761 -0.174331
0.257791 0.0806851 -0.106181
-0.219288 0.0731428 -0.108509
-0.0720233 -0.338191 0.0865347
-0.195233 0.271174 -0.00132867
-0.105285 -0.49827 -0.171228
-0.114445 -0.497113 0.0760974
0.202787 -0.0193663 -0.0918883
0.194095 -0.0166986 -0.111421
0.0715359 -0.0827048 -0.0924902
-0.109946 -0.494132 0.0965278
-0.187166 -0.146039 -0.103198
0.162574 0.36703 0.0853301
-0.0717766 0.37717 0.0774078
-0.133403 0.335526 0.0701023
-0.205482 0.161542 0.0671072
0.270859 0.069765 0.0852998
-0.265831 -0.240518 -0.255823
0.229336 0.463691 -0.0706799
-0.0198736 -0.136771 0.0805893
0.153942 -0.137543 0.0654375
-0.0674986 -0.382533 0.0786495
-0.0910556 -0.153017 -0.102912
-0.147088 -0.403923 0.0739462
0.113676 -0.417198 -0.0995484
-0.0788573 -0.497482 -0.152317
0.142101 -0.443136 -0.106762
0.105377 0.21103 0.214489
-0.105415 -0.412995 0.0862844
-0.21375 -0.484174 -0.0970525
-0.0276685 0.184122 -0.25818
-0.00634622 -0.499805 0.0825205
0.0306278 -0.498275 0.0683943
0.130087 -0.499033 -0.0893714
0.103417 -0.497127 -0.107086
-0.0418953 0.176339 -0.254893
0.247102 0.404841 -0.111078
0.175648 0.401927 -0.109452
0.16282 0.405137 -0.101283
0.0293592 0.394971 -0.112561
0.146867 0.398207 -0.101696
0.278049 0.380461 -0.103381
-0.0956414 0.357773 -0.0971592
0.185928 0.348027 0.0783038
-0.17769 0.274215 0.0675787
-0.148964 0.322312 -0.113521
-0.18914 0.248077 0.0631992
-0.272655 0.308627 -0.113815
-0.265395 0.294005 -0.125246
0.269888 0.219298 0.0810514
-0.292064 0.201733 -0.100711
-0.283311 0.188129 -0.106738
-0.252134 0.142898 -0.121937
-0.0788007 0.383373 -0.0148408
0.275627 0.0705066 0.0644366
0.262564 0.0384435 0.0729931
-0.210399 0.0435963 -0.118533
-0.203012 0.0301711 -0.121382
0.247585 0.0346323 -0.0879223
0.226738 -0.0140504 0.0749022
0.175091 -0.246754 0.0604912
0.175479 -0.228262 0.063464
-0.164196 0.012213 -0.113978
0.227771 0.0129027 -0.100269
-0.139512 -0.00134003 -0.118849
-0.0897948 -0.310631 0.0743624
-0.0748446 -0.366697 0.0758417
-0.15097 -0.368466 0.0699426
-0.169515 -0.366173 0.0684618
0.204192 0.346694 -0.136188
0.00911663 -0.191928 -0.113867
-0.266531 -0.35445 -0.171533
0.068617 -0.225182 -0.102436
0.0859193 -0.255181 -0.100835
0.0852011 0.402095 0.0814057
-0.202153 0.181339 0.0741613
0.0584671 -0.371968 -0.114049
-0.207532 0.143684 0.0578011
0.253485 0.02525 0.0818777
-0.156072 0.00106745 0.0712443
0.11486 0.196638 -0.245869
-0.226184 -0.466865 -0.108744
0.140414 -0.492459 -0.104527
-0.112504 -0.295692 0.0587236
0.127314 0.244593 0.208293
0.0980998 0.388592 -0.116299
0.242495 0.385541 -0.118397
0.135039 -0.323167 0.0660412
-0.0445364 -0.46159 -0.210032
-0.0747567 -0.162532 -0.163018
-0.205416 0.321589 -0.115661
-0.14389 -0.497824 -0.135775
-0.133694 -0.331789 0.0647913
0.0567402 0.26553 -0.242207
-0.123273 -0.350077 0.0659845
-0.173306 -0.336352 0.0665664
-0.140316 -0.351566 0.0679238
-0.275409 0.174485 -0.110018
0.263832 0.158937 -0.108418
0.260223 0.119985 -0.113515
-0.124172 0.181807 -0.215733
0.258648 0.100425 -0.112217
-0.131701 -0.391126 0.0719232
-0.092093 -0.381627 0.0690098
-0.189101 0.0268011 -0.115434
-0.210799 -0.389966 -0.228583
-0.155756 0.00317764 -0.123704
0.139744 -0.0581661 0.139136
-0.124757 -0.00886609 -0.119349
0.184494 -0.0143874 -0.127647
0.269355 0.172495 0.101076
0.0817941 -0.497913 -0.0157474
-0.0247135 -0.178225 -0.11565
0.117227 0.400329 0.0656366
0.0913668 0.175018 -0.256779
0.0463427 -0.219068 0.175617
0.133934 0.391237 0.0716092
0.175371 0.35947 0.0761434
0.220928 0.30835 0.0800506
0.266638 0.161128 0.111663
-0.0420189 0.140883 -0.255452
-0.204088 0.130753 0.0701643
0.110524 -0.43215 -0.112054
-0.0945384 -0.0595684 0.0769083
0.154032 -0.105052 0.0440823
0.148121 -0.474779 -0.110638
0.151005 -0.105288 0.0635621
-0.0985498 -0.29238 0.0689701
-0.101756 -0.313068 0.0608877
-0.194266 -0.306815 0.0588225
0.0875164 -0.499023 -0.0905329
-0.192642 -0.336466 0.0618055
0.00231903 -0.497926 -0.11193
0.194194 0.399588 -0.115736
0.122099 -0.331513 0.0796558
0.160041 0.389471 -0.114817
0.247771 0.0462581 -0.101389
0.00851996 -0.457135 -0.201626
0.268021 0.373975 -0.111005
0.251276 0.313856 -0.121571
0.251779 0.273106 -0.11667
-0.297158 0.26718 -0.107638
0.251798 0.251183 -0.114839
-0.293272 0.23429 -0.111219
-0.206632 -0.388909 0.050682
-0.26616 0.168767 -0.121629
0.0630898 -0.457685 0.0693432
-0.231567 0.105108 -0.109241
-0.059446 -0.498215 0.0719067
0.24182 0.067643 -0.128482
-0.245884 0.114402 -0.0786902
-0.0587575 0.389416 0.0478113
-0.0364932 0.393887 0.0698382
0.232089 0.299992 0.0675795
0.241903 0.292828 0.0556198
0.245854 0.00173404 0.0368781
-0.11843 -0.0435497 0.0546497
-0.109552 -0.0179965 -0.120884
0.224525 -0.0205323 0.0549334
0.028304 -0.0749813 -0.108175
-0.0706193 -0.161502 -0.127015
-0.00784104 -0.18645 -0.12227
-0.270732 -0.199162 -0.103159
-0.102445 -0.0558323 0.0578223
0.129761 -0.0355634 -0.147985
0.0663229 -0.350681 -0.109885
0.0211078 0.39973 -0.0962538
-0.090758 -0.156425 -0.154887
0.153256 -0.121698 0.0531236
-0.10667 -0.276442 0.0621635
-0.137585 -0.408682 -0.261186
0.0492291 -0.335439 -0.126642
-0.203372 -0.283251 -0.279133
-0.154283 -0.278058 0.0561405
0.0459999 -0.385935 -0.123234
-0.0319581 -0.337172 -0.272989
-0.210867 -0.0402358 -0.154371
-0.168026 -0.29075 0.0596053
-0.186038 -0.42064 0.0582844
0.0693071 -0.407936 -0.11702
0.0812661 -0.420429 -0.116345
0.0929524 -0.435931 -0.117751
-0.185451 -0.455441 0.0642629
-0.0141112 -0.0736307 -0.0965084
-0.0820142 -0.497361 0.0667692
0.0648421 0.41084 0.0521098
-0.0257219 -0.195105 -0.192482
0.235565 0.167026 -0.157624
-0.206305 0.176215 0.0563273
0.131457 -0.480749 -0.119148
0.285722 0.124383 0.0443225
0.114482 -0.252537 -0.0776255
0.213254 0.399926 -0.117544
0.0484972 0.393702 -0.116391
0.132131 0.033544 0.252207
0.223074 0.373698 -0.126356
-0.120034 0.338315 -0.11078
-0.184443 -0.292057 0.0584235
0.0880933 -0.385747 0.062922
-0.284468 0.221579 -0.120482
0.0827262 -0.416454 0.0527241
0.246169 0.141731 -0.141351
0.0693542 -0.406136 0.074659
0.283251 0.208187 0.0443359
0.17699 0.286004 -0.174963
0.251118 0.0868076 -0.121404
-0.27053 -0.290751 -0.216295
-0.21553 0.0231172 -0.132605
0.24025 0.0478305 -0.117947
0.230498 0.0367275 -0.124617
-0.198742 0.0153659 -0.12772
-0.197063 0.0748717 0.0483987
0.213342 -0.00513108 -0.0991162
-0.14456 0.00351021 -0.137081
-0.0960442 -0.026288 -0.121117
-0.200658 0.0916601 0.0576857
0.25999 0.0248378 0.047388
-0.0376986 -0.185948 -0.189875
-0.204094 -0.149757 -0.115833
0.0222362 -0.204083 -0.120192
-0.13788 -0.023438 0.0691618
0.0394666 -0.220947 -0.121911
-0.285346 -0.220387 -0.125527
-0.0282299 0.114451 -0.256321
-0.119165 -0.264465 0.0517284
-0.125175 -0.278659 0.0568476
-0.172579 -0.275489 0.0551721
0.0648077 -0.333029 -0.113845
-0.0220186 0.317476 0.193593
0.051491 -0.353124 -0.118843
-0.257357 0.161552 -0.130101
0.0508909 -0.409296 -0.1202
0.0622467 -0.425276 -0.125027
-0.212536 -0.356483 0.0526755
0.0738943 -0.440535 -0.123271
-0.228156 -0.356944 0.0429349
0.206346 -0.00164928 0.151447
0.105982 -0.449881 -0.121361
0.099642 -0.380699 0.0512094
0.118827 -0.464832 -0.122884
0.0445285 -0.496769 0.0568941
0.281203 0.227275 0.0527394
-0.198671 0.213368 0.0648845
0.0281812 -0.498728 -0.13179
0.28324 0.139808 0.0596178
0.283826 0.154573 0.0503035
0.140798 0.386516 -0.1144
0.179836 0.388229 -0.120009
-0.0499086 -0.183562 -0.202605
0.253657 0.373234 -0.117484
-0.0895157 0.348872 -0.126159
0.235662 0.344581 -0.128414
0.0411261 0.104761 -0.262757
0.235538 0.32383 -0.129796
-0.0916424 0.0065094 -0.172463
0.237234 0.284893 -0.128462
-0.283794 0.273111 -0.120411
-0.131368 -0.251775 0.0464575
0.250259 0.174423 -0.133452
0.244845 0.122479 -0.141111
-0.0446121 -0.0131378 -0.176597
-0.159086 -0.262799 0.0509996
-0.220579 0.0407967 -0.133687
0.126802 0.00378755 0.234723
-0.221451 -0.341339 0.0490379
-0.127497 3.29904e-005 -0.135276
0.158573 -0.0349892 -0.124682
-0.0151172 -0.0648734 -0.114308
-0.199515 -0.420276 0.0458711
-0.0650924 -0.179161 -0.210444
-0.247101 -0.318015 -0.23319
0.0453405 -0.282759 -0.138262
-0.29034 -0.307578 -0.130404
0.0602924 -0.295649 -0.122387
-0.204001 -0.450755 0.0296574
0.0436591 -0.319163 -0.131164
-0.0113074 0.105184 -0.258215
0.0446899 -0.369095 -0.129741
-0.0242637 0.400843 0.0523523
0.157325 0.39491 0.0438658
0.0386685 -0.0187865 -0.196709
-0.194576 0.236857 0.052062
0.212792 -0.005395 0.132992
-0.066291 -0.496242 -0.121849
-0.163058 -0.497895 -0.140973
0.283641 0.25907 0.0433204
0.119353 0.385977 -0.115091
-0.207528 0.108235 0.0475326
0.150115 0.37589 -0.125597
0.196481 -0.048259 0.0446101
-0.166062 0.312038 -0.123553
0.170734 -0.0722981 0.043878
0.170067 -0.0733962 0.0269022
-0.0283869 0.371362 0.131663
-0.281224 0.241193 -0.126494
-0.036325 -0.165957 0.045376
-0.186719 -0.246456 0.0410587
-0.239304 0.118078 -0.120704
-0.195968 -0.26109 0.0460689
0.170898 -0.271953 0.0364551
0.0254476 -0.0268298 -0.186424
0.111586 -0.364277 0.0454392
0.0192474 -0.0120148 -0.200908
0.105324 -0.384632 0.0388805
-0.190641 -0.000300614 -0.134679
-0.238959 -0.368755 0.030557
-0.189183 0.0394135 -0.0170896
-0.218787 -0.153683 -0.124377
0.0396978 -0.498188 0.0404656
0.107245 0.410237 0.0359146
0.0590491 -0.315272 -0.123405
0.0904869 -0.499218 -0.0595233
0.101407 0.413116 0.0189334
-0.0310527 0.40112 0.0350076
-0.0635357 0.38978 0.0283368
-0.0753462 0.382865 0.0398616
-0.090763 0.37347 0.0490104
-0.0269793 0.00453683 -0.202057
0.22299 0.31765 0.0476628
0.20916 0.329409 0.0587833
-0.0839373 0.343402 -0.142524
0.23437 0.30529 0.045902
-0.100647 0.33806 -0.134882
-0.175656 0.284781 0.0548094
-0.14595 0.314061 -0.127905
0.260407 0.298796 0.0263962
-0.0275288 0.335603 -0.190873
-0.251139 0.289481 -0.133856
0.223761 0.277064 -0.139442
-0.274269 0.259536 -0.130687
-0.266424 0.195229 -0.134675
-0.205771 0.190638 0.0463177
-0.243882 0.101338 -0.12687
0.202927 -0.0362257 0.0768462
0.282833 0.0909044 0.0384767
0.219907 0.0414328 -0.14406
-0.0350841 -0.103358 0.0375836
-0.0465346 -0.180352 0.0548562
-0.168172 -0.247839 0.0437767
-0.051962 -0.0400118 -0.135969
0.20342 0.300878 0.134986
-0.121024 -0.175969 -0.015076
0.0336588 -0.0660801 -0.126219
-0.207592 -0.277242 0.0475173
-0.260653 -0.180698 -0.12937
-0.00831035 -0.191143 -0.142546
-0.272043 -0.188241 -0.141372
0.019047 -0.211244 -0.134976
0.163652 -0.288335 0.0402654
0.0426774 -0.262158 -0.139968
-0.294545 -0.258493 -0.138735
0.144201 -0.322149 0.027939
-0.211873 -0.404857 0.0410877
-0.293519 -0.288571 -0.129026
-0.184784 0.0833768 -0.198459
0.0785561 -0.499082 -0.0737176
-0.175587 -0.489083 0.0426325
0.189469 -0.0456102 0.0844424
-0.155013 -0.0040546 -0.0206914
0.0207946 0.411026 0.0378653
-0.00997952 0.35505 -0.174888
-0.10288 0.368496 0.0341727
-0.0886242 0.377082 0.0295949
0.0710008 -0.456096 -0.135496
-0.200263 -0.489374 -0.146124
0.285666 0.108357 0.0307711
-0.0324486 -0.496952 -0.135004
0.0194915 0.385884 -0.132186
0.104491 0.378968 -0.130029
-0.0606204 0.360896 -0.132125
-0.206925 0.0915989 0.0380125
0.153493 -0.106641 0.0232543
0.17365 0.345525 -0.141854
0.190558 0.337667 -0.141189
-0.132389 0.326799 -0.119238
-0.196199 -0.233213 0.0309332
0.193101 0.128493 -0.202469
-0.220966 -0.391333 0.0387875
-0.22804 -0.375449 0.0384758
-0.247046 0.272885 -0.142826
0.104491 -0.403613 0.0305683
0.108193 -0.437551 0.0170427
0.175948 0.387701 0.0332406
-0.00730469 0.34107 -0.191517
0.237404 0.0084071 -0.0695068
-0.195054 0.247737 0.0275507
-0.2267 0.00951238 -0.146753
-0.224957 -0.0069504 -0.143571
-0.16284 0.00362312 -0.14356
-0.218074 0.147543 0.0180121
-0.08596 0.372121 -0.0655772
-0.0761594 -0.0740265 0.0433151
-0.0349429 -0.356352 0.113609
-0.20524 -0.0087453 -0.139658
-0.0849253 -0.016726 -0.14848
-0.024282 -0.137789 0.0229926
-0.0843062 -0.155939 -0.11857
0.162041 -0.158261 0.0395521
0.173356 -0.204864 0.0222406
-0.280681 -0.205198 -0.136796
-0.097266 -0.218423 0.0436441
0.0470772 -0.302053 -0.136486
-0.13253 -0.221453 0.0303287
-0.227077 -0.241307 0.0214551
-0.161817 0.007763 -0.0535478
0.163247 -0.29036 0.0218912
-0.246044 -0.334436 0.0299693
0.019756 -0.486521 -0.19368
0.0219615 0.214772 0.234949
0.0488769 -0.49748 -0.136546
0.253912 0.316664 0.0162892
0.121736 0.356926 -0.150778
-0.215141 -0.445151 -0.180188
0.17827 0.327513 -0.148653
-0.0938352 0.331529 -0.152965
-0.203875 -0.45078 -0.191673
-0.207474 0.199181 0.0167899
0.231153 0.255567 -0.137921
0.234002 0.226608 -0.145482
-0.273946 0.209896 -0.130345
0.107098 -0.0750377 0.137517
-0.203016 0.214495 0.0296466
0.241263 0.103362 -0.142791
-0.206565 0.195545 0.0310999
-0.209341 0.175938 0.0361936
0.178722 0.00398137 -0.15754
-0.116195 0.00265625 -0.151488
0.286643 0.125751 0.0238666
0.166416 -0.00962726 -0.153273
0.262607 0.0281441 0.0293649
-0.161972 0.00108751 0.0129893
0.215568 -0.0329098 0.023674
-0.0932317 -0.0634405 0.04084
-0.158277 0.27965 0.112837
-0.0341376 -0.0378535 -0.150479
0.264259 0.054672 -0.0662661
0.168678 -0.274615 0.0133731
-0.250662 -0.362539 0.0197491
-0.234218 -0.388051 0.0276476
0.11533 -0.404199 0.0122026
0.0320302 -0.228169 -0.135616
-0.299699 -0.168513 -0.248337
-0.223496 -0.421474 0.0190039
0.257273 0.195893 0.12329
0.022575 -0.390177 -0.191978
0.210675 0.458162 0.0212597
0.18969 0.458209 0.0128978
0.0364748 -0.38588 -0.158208
0.213243 0.436689 0.019932
0.0189814 -0.258894 -0.198517
0.148741 0.42559 0.0156496
0.00013038 0.410193 0.0122067
0.200872 0.419851 0.0224521
-0.141048 0.344573 0.0202989
-0.127729 0.320083 -0.135797
-0.145206 0.336626 0.0364495
-0.138798 0.306249 -0.143579
-0.0759127 -0.192804 -0.23908
0.225713 -0.00729841 -0.0659129
-0.23013 -0.450082 -0.141399
0.278588 0.0686873 0.0156488
-0.104015 -0.207275 0.0295491
-0.255795 0.226905 -0.14768
0.239504 0.183575 -0.149774
0.122846 -0.354538 0.02829
-0.235668 0.13169 -0.146554
0.232163 0.0855658 -0.150524
0.219928 0.0771646 -0.163224
0.0379069 -0.322913 -0.18282
0.0108652 -0.242621 -0.199094
-0.297238 -0.228577 -0.193029
0.110027 -0.419193 0.0175298
0.0825824 -0.48111 0.0304009
-0.119895 -0.0371711 0.090414
-0.0584613 -0.490055 0.0209647
-0.2133 -0.477543 -0.143405
-0.282511 -0.193485 -0.153254
0.0722423 0.086347 -0.254455
0.160019 0.437032 0.00638312
-0.29401 -0.241476 -0.147846
0.0315321 -0.275293 -0.151548
-0.019356 0.405773 0.0175943
-0.157173 0.333394 0.0183591
0.0567317 -0.489594 -0.154994
-0.0715191 -0.496803 -0.136272
0.157602 0.00544396 0.216652
0.0541895 0.374899 -0.151513
0.130938 0.339235 -0.163973
0.269645 0.31281 0.0202488
0.188209 0.296852 -0.159692
0.2032 0.239014 -0.176261
-0.242808 0.218377 -0.156046
0.268357 0.342332 0.00822702
-0.252539 0.19765 -0.14869
0.0365095 0.388419 -0.129058
-0.179867 0.293052 0.0216593
-0.24365 0.115936 -0.142952
-0.0292583 -0.0726818 -0.0891229
-0.239636 0.0549087 -0.163479
-0.108576 -0.0519146 0.0384079
0.17991 -0.0639002 0.0132965
-0.143318 0.0189668 -0.164817
-0.215248 0.285506 -0.145068
-0.0408672 -0.097272 0.0179709
-0.177541 -0.00753813 -0.148315
-0.069817 -0.019123 -0.156048
0.266699 0.0401902 0.0555417
0.00106255 -0.223069 -0.193191
-0.0307692 -0.109408 0.0205157
-0.0247463 -0.123124 0.0114677
-0.250826 -0.267472 0.0151134
0.241048 0.23951 -0.13015
-0.242337 -0.161448 -0.149086
-0.230367 -0.425588 0.00517353
-0.213202 -0.435001 0.0230749
0.0453023 -0.498158 0.0220405
0.0331106 -0.245252 -0.145885
0.0324513 -0.498606 0.00778272
-0.061096 -0.0617768 -0.0829523
0.258449 0.476547 0.0098754
0.0320331 -0.295687 -0.151111
-0.00353434 -0.324416 -0.25606
-0.285209 -0.304646 -0.163311
0.0408598 -0.334614 -0.145564
0.232524 0.430017 0.00968375
0.204275 0.399213 0.0164217
-0.0861884 0.0221371 -0.190152
0.231947 0.338681 0.00931351
-0.00532839 -0.302715 -0.256665
-0.300572 -0.205397 -0.186638
-0.0348115 0.285003 -0.227834
-0.101793 0.0333052 -0.190418
-0.111849 -0.248143 0.0523653
-0.110877 0.32596 -0.144511
0.174846 0.312205 -0.159357
-0.287304 -0.330141 -0.0537131
-0.148843 -0.0136497 0.00538185
-0.0280549 -0.152841 0.0118731
-0.219835 0.254905 -0.158117
-0.25945 -0.309652 0.0153252
0.050384 -0.491238 0.0748852
0.107808 -0.469776 0.0120489
0.223675 0.112696 -0.168842
0.0709995 -0.497701 -0.00140916
-0.22417 0.0278976 -0.148083
-0.228845 0.0150212 -0.162149
0.0621058 -0.497117 0.0172843
-0.125711 0.0158738 -0.164763
-0.00531452 -0.104907 -0.0455385
0.244488 0.444546 0.00891796
-0.242232 -0.0405429 -0.157709
0.036709 -0.0561971 -0.144871
-0.000435963 -0.0518757 -0.143967
0.0565308 -0.0557013 -0.145485
-0.246402 -0.167837 -0.132935
-0.273135 -0.176174 -0.157088
-0.294411 -0.226819 -0.158161
0.028157 -0.258831 -0.157106
-0.280865 -0.321788 -0.161875
0.236988 0.26198 0.121317
0.0428531 -0.352502 -0.138144
0.206239 0.368321 0.0129087
0.24697 0.0147737 -0.052227
-0.18441 0.30844 0.0101248
0.304531 0.273399 0.0199401
-0.0697972 0.372054 0.0962592
-0.200655 0.229448 0.0193663
-0.278491 -0.230381 -0.0622562
0.258562 0.0214296 -0.00484907
-0.17194 0.0146941 0.000427366
-0.305874 -0.172615 -0.205183
0.0355716 0.0215322 -0.22831
-0.0540845 -0.08662 0.0146271
-0.229976 0.235154 -0.159986
-0.0222761 -0.120323 -0.00609299
-0.0314096 -0.106861 0.00200159
-0.0968311 -0.18879 0.00786564
-0.251096 0.0963993 -0.144119
-0.158375 -0.204791 0.0155154
-0.231695 -0.208106 -0.00941778
-0.222982 -0.225893 0.0130046
0.192031 0.0139414 -0.154201
-0.18463 -0.488131 0.00884061
-0.234253 0.00423731 -0.176281
0.2917 0.470245 0.00106365
-0.0829066 -0.00601365 -0.16363
0.188446 0.461741 -0.00541801
0.139544 -0.0232277 -0.15907
0.279959 0.45485 0.00459409
0.271704 0.424064 0.00127447
0.264423 0.442339 0.00441678
0.0947078 0.414481 0.001726
0.113265 0.414892 0.00572483
0.263576 0.391444 0.00030941
0.245711 0.395479 0.00126378
-0.0908926 -0.158195 -0.171093
0.210982 0.384073 0.0108228
0.224029 0.399878 0.00689628
0.119504 -0.0465505 -0.136956
0.00421962 -0.204596 -0.150433
-0.289121 -0.221757 -0.141538
0.0374122 -0.30966 -0.167391
0.0465316 -0.158954 -0.0646303
-0.253619 0.121875 0.00503164
0.0584956 -0.452127 -0.150916
-0.196734 0.0588306 0.0189057
-0.214982 -0.458992 -0.166367
-0.0435321 -0.382923 -0.26397
-0.0157802 -0.0440462 -0.149909
-0.130591 -0.0231423 -0.0426319
-0.0586257 0.049577 -0.222713
-0.0502574 -0.497459 -0.172296
0.0142327 0.376354 -0.149642
0.0581576 -0.499099 -0.0681801
0.211854 0.172961 -0.185836
-0.238779 -0.236885 0.00959139
-0.226572 0.214648 -0.164001
0.11534 -0.452653 0.0081521
-0.225387 0.1417 -0.156838
0.121817 -0.468612 0.00129692
0.296667 0.451897 0.00143532
0.22645 0.0959335 -0.161128
0.208366 0.0439821 -0.159978
-0.0627479 0.0211088 0.235911
0.302171 0.433447 0.000344335
0.281225 0.101373 -0.0389968
0.209558 0.221761 -0.176675
-0.198357 0.243949 0.0101189
-0.157218 0.00687507 -0.171319
0.284871 0.191167 -0.0107927
-0.247195 -0.0212504 -0.167174
0.109921 -0.0395158 -0.154242
-0.234947 -0.0203042 -0.150653
-0.189788 -0.0173796 -0.147165
0.226692 0.280085 0.121504
-0.252379 -0.0798548 -0.172714
-0.212402 -0.0624206 -0.168475
-0.238401 0.168272 -0.001561
0.18628 -0.0235011 0.145772
-0.234715 -0.068932 -0.166801
-0.223224 -0.154355 -0.153933
-0.256692 -0.162099 -0.158775
-0.269866 -0.158987 -0.168676
0.0209752 -0.240662 -0.162655
-0.263999 0.137777 0.00245685
0.0319309 -0.289197 -0.167733
0.272927 0.0514509 0.00476498
0.249139 0.00634285 -0.00114056
0.170416 -0.0704544 -0.00755436
0.150511 -0.104371 0.0016005
0.147039 -0.122935 -0.00339688
-0.193116 -0.489388 -0.160778
-0.101347 -0.180499 -0.00750939
0.168244 -0.193736 0.00905621
0.170965 -0.227057 -0.00207298
-0.0954244 0.310397 -0.177257
-0.130153 0.296813 -0.16104
-0.155329 0.27601 -0.161021
-0.186093 0.265579 -0.159695
0.219684 0.232177 -0.161852
0.122273 -0.399525 -0.00492043
-0.281437 -0.0827054 -0.187274
-0.202102 -0.476859 -0.00606232
-0.0151008 -0.494361 -0.00872658
-0.223985 0.195203 -0.16573
-0.143269 -0.436711 -0.244067
-0.201158 0.141267 -0.175434
0.319502 0.327113 -0.000385982
-0.210798 0.221159 -0.0108151
0.136338 0.324254 -0.174171
-0.27703 0.169535 -0.00436569
0.266773 0.0371294 -0.00159796
0.192945 0.0312561 -0.168089
-0.131764 -0.0258076 -0.0245998
-0.153042 0.0246623 -0.17955
0.192638 -0.0535285 0.0131712
0.0677334 -0.0464753 -0.159999
-0.255713 -0.0403342 -0.168713
-0.220014 -0.0773162 -0.175779
0.112772 -0.17612 -0.0575443
-0.0567251 -0.0821985 -0.00330743
-0.237172 -0.15615 -0.166253
0.169601 -0.209112 0.00212887
0.165146 -0.231976 -0.0174184
-0.268879 -0.143094 -0.175832
-0.286285 -0.315096 -0.146023
0.28353 0.091337 0.0204337
-0.073417 -0.165468 -0.179683
-0.288933 -0.181963 -0.169494
-0.294931 -0.245219 -0.166888
-0.253705 -0.254714 0.00619579
-0.248814 -0.399869 -0.000887851
0.25202 0.0522497 0.125633
-0.234187 -0.426799 -0.164537
-0.151346 -0.495863 -0.0295732
0.167419 0.0607236 -0.204728
-0.0996405 -0.497769 -0.15437
0.0540047 0.364571 -0.166164
-0.0378866 0.343305 -0.177692
-0.166556 -0.496243 -0.0160307
-0.164868 -0.495658 0.00410567
0.269463 0.5 -0.0150364
0.200168 0.208092 -0.190472
-0.0270381 0.355458 -0.167426
0.227474 0.178982 -0.167229
0.232735 0.489949 -0.00242944
-0.212383 0.148703 -0.167245
0.0351136 -0.303844 -0.184641
-0.249598 0.0930226 -0.176775
-0.249142 0.0701327 -0.171795
0.206973 0.0788287 -0.177929
-0.225545 0.0448761 -0.176593
-0.222712 0.0240847 -0.178409
0.145281 0.427256 -0.00445058
0.140169 0.424376 -0.0236723
0.14942 -0.00826084 -0.168974
-0.0998651 0.0194142 -0.179997
0.0175679 -0.498422 -0.145545
-0.166361 -0.00982925 -0.177841
0.0792827 0.415598 -0.0104803
0.091912 0.415173 -0.0203445
-0.24534 -0.0130635 -0.183525
-0.00712989 -0.0273082 -0.17773
0.325567 0.387068 -0.0155472
0.321258 0.40245 -0.00662127
-0.113771 0.327693 0.121285
0.323174 0.331864 -0.0201957
-0.0489604 -0.348113 -0.278524
0.305844 0.260517 -0.00922323
-0.237187 -0.0846518 -0.174911
0.300705 0.246262 -0.00666118
-0.221718 0.201917 -0.0105818
-0.23044 -0.128125 -0.191408
0.277952 0.0932859 -0.0506693
-0.267401 0.185886 -0.00885461
0.106079 -0.312076 0.126227
-0.171343 -0.00441258 -0.195016
0.142667 -0.1394 -0.0160088
0.123666 0.00828473 -0.200468
0.137131 -0.461087 -0.00998051
-0.0920803 0.239316 -0.221973
0.275664 0.166086 0.0830993
-0.283104 -0.167727 -0.171788
0.121094 -0.48817 -0.00636355
0.0253035 -0.269516 -0.174119
-0.234489 -0.436961 -0.149623
0.0595194 -0.498746 -0.0146815
0.0409069 -0.499013 -0.0268716
0.188366 0.461046 -0.0230375
-0.217759 0.331722 -0.0107253
0.0381674 -0.46023 -0.183315
-0.0672834 -0.497884 -0.170789
-0.0230261 -0.185159 -0.154005
-0.2582 0.201929 -0.0155195
0.0016995 0.366847 -0.161933
0.276803 0.0635753 -0.00574271
-0.0498662 0.331424 -0.184749
0.199079 -0.0469709 -0.00725978
0.160157 0.291009 -0.184116
0.150489 -0.154287 -0.00755391
-0.130739 0.266018 -0.184394
-0.204443 -0.199681 1.35023e-005
-0.171592 0.228517 -0.177906
-0.195156 0.180806 -0.177161
0.0349346 0.205733 -0.263086
-0.216445 -0.196541 -0.0106032
-0.186594 0.150025 -0.180387
-0.187106 0.12988 -0.183794
-0.20575 0.125368 -0.185401
-0.260917 -0.235796 -0.0161289
-0.224815 0.121793 -0.182691
-0.0673587 -0.322312 0.0950539
0.163608 -0.254526 -0.0197977
-0.135819 0.0458717 -0.184745
0.181647 0.0182293 -0.168672
0.169527 -0.248823 -0.0062348
-0.27925 -0.345886 -0.0275066
-0.259324 -0.393676 -0.0171734
0.138151 0.000745908 -0.185723
-0.162138 0.0104931 -0.187089
-0.157287 0.0228028 0.108775
0.0465429 -0.0473317 -0.160943
0.157083 0.436548 -0.014206
0.0184767 0.413468 -0.0200798
-0.266144 -0.0504932 -0.179536
-0.0922597 0.376879 -0.00712761
-0.240397 0.331338 -0.104648
0.0521435 0.205138 -0.261794
0.0861593 0.383261 -0.129567
-0.19784 0.293915 -0.141098
-0.241912 -0.119532 -0.181954
-0.20023 0.250417 -0.00608045
-0.224987 0.0815729 -0.038072
-0.204836 0.274231 -0.152958
-0.30227 0.231564 -0.0194216
0.00198405 0.194661 -0.263152
0.205233 0.286383 -0.151838
-0.175383 -0.364945 -0.265998
-0.234544 -0.139914 -0.177782
-0.237235 -0.00400333 -0.161661
-0.162028 0.0107107 -0.0717646
-0.0373456 -0.180481 -0.170696
-0.296422 -0.232614 -0.176647
0.0107754 -0.231689 -0.180032
-0.294095 -0.259897 -0.154512
-0.290626 0.217196 -0.01705
-0.269621 0.21878 -0.0195255
0.00221856 0.411077 -0.00997009
-0.26961 -0.335619 -0.18269
0.285431 0.126502 -0.0193727
-0.18888 0.264755 0.0334901
0.00539906 -0.496899 -0.180891
-0.162984 -0.495227 -0.180004
-0.250999 0.111338 -0.00908346
0.18686 0.24646 -0.187648
-0.153426 0.233396 -0.185041
-0.171551 0.205065 -0.18367
0.209598 0.157895 -0.188761
-0.201697 0.0603159 0.000984939
-0.158948 0.00225376 -0.0368968
-0.102211 -0.0482827 -0.0270836
-0.208719 0.113964 -0.199103
-0.102154 -0.0533597 -0.000561925
-0.0534758 -0.170397 -0.00632489
-0.239181 0.112297 -0.178188
0.200813 0.0938047 -0.188512
-0.148432 -0.191318 0.00370223
0.0679706 -0.0631037 -0.130173
-0.236184 0.0583037 -0.181775
0.198689 0.0472745 -0.172649
0.161839 -0.193627 -0.00855586
-0.120513 0.0407738 -0.186098
-0.211337 0.0348208 -0.189901
0.164684 -0.272282 -0.00810029
-0.28628 -0.293538 -0.0395797
-0.280871 -0.280458 -0.0264952
-0.16395 0.0319373 -0.195512
0.134536 -0.497677 -0.0379381
0.136447 -0.491005 -0.0209069
0.123601 0.417226 -0.0291091
-0.27415 -0.089404 -0.26487
0.325777 0.370701 -0.0246713
-0.0454284 -0.24217 -0.26473
0.316937 0.304379 -0.0305793
-0.279114 0.315769 -0.0241335
-0.307291 0.288533 -0.0244825
-0.289024 0.286558 -0.0242543
-0.0223604 -0.19094 -0.173763
-0.298966 0.270095 -0.023263
-0.274374 -0.338392 -0.166874
0.234374 0.1313 -0.158133
-0.259549 0.236116 -0.0239783
-0.247924 0.219527 -0.0210526
-0.0997779 -0.0375097 0.13901
0.284172 0.143558 -0.0323019
0.00475732 0.353353 -0.180511
0.284699 0.159864 -0.0211331
0.0334971 0.345991 -0.190397
0.100382 0.333376 -0.18453
-0.069853 0.306934 -0.197495
-0.273466 0.138754 -0.0137479
-0.200378 0.0546805 -0.0176661
-0.111645 -0.0432671 -0.0157047
0.148841 -0.16904 -0.0193061
-0.137419 -0.171257 -0.0226216
0.191857 0.279864 -0.16657
-0.175918 0.100125 -0.19036
0.14085 -0.321999 -0.0171042
-0.162147 -0.381016 -0.266052
-0.235423 -0.439576 -0.0261628
-0.243972 -0.424152 -0.0230988
0.0692749 0.201977 -0.259562
-0.111863 -0.0278107 -0.0869423
0.184545 0.0439687 -0.183833
-0.1157 -0.497426 -0.0171126
0.249684 0.497744 -0.0115501
0.173149 0.448917 -0.0170153
-0.263452 -0.0952802 -0.276412
-0.157552 0.128605 -0.194219
-0.267571 0.35788 -0.0372881
0.122124 -0.00669161 -0.188178
-0.260676 -0.396074 -0.131542
-0.274492 0.351726 -0.0735227
-0.194123 -0.0539903 -0.180171
-0.29762 0.345016 -0.03027
0.283787 0.171001 0.0410304
-0.299046 0.325767 -0.0257884
-0.317491 0.3034 -0.0300552
0.217495 0.0268161 -0.135107
-0.221652 -0.143777 -0.192106
-0.115168 0.275583 0.170642
-0.15949 -0.000948593 -0.00414618
0.244407 0.00555016 -0.0334744
-0.010612 -0.20484 -0.18431
0.251644 0.0122548 -0.0184841
-0.076471 -0.067007 -0.0247998
-0.0899163 -0.0598022 -0.0139951
0.020037 -0.408821 -0.180605
0.00902204 -0.418657 -0.190633
0.0252465 -0.448158 -0.191062
0.0570898 0.186387 -0.263694
-0.180893 -0.488851 -0.179085
-0.104648 -0.171875 -0.0241737
0.151529 -0.457913 -0.0241221
0.0190564 0.407622 -0.0634343
0.147893 -0.476328 -0.0210938
0.01776 0.365574 -0.16664
0.276131 0.493001 -0.0318124
0.132341 0.312679 -0.18581
-0.0979133 0.208046 -0.226792
-0.138323 0.24728 -0.188914
0.204779 0.187696 -0.190884
-0.113141 0.303297 -0.169693
-0.172046 0.118392 -0.187936
0.058435 0.41592 -0.0120795
-0.121063 0.312432 -0.153195
-0.0653167 0.38634 -0.0449543
0.120852 0.40532 0.0480844
-0.193775 0.0994669 -0.201265
-0.241977 0.0761104 -0.188841
0.10311 0.407372 0.0526696
-0.157282 0.0712533 -0.190925
0.0289566 -0.49891 -0.0452024
0.0836032 0.413746 0.0192789
-0.107942 0.0482766 -0.19728
-0.216893 0.0516453 -0.190169
-0.319699 0.274152 -0.0291232
0.29496 0.236643 -0.0283456
0.203191 -0.041105 -0.024198
-0.0211272 -0.104944 -0.0302144
0.00698522 -0.119046 -0.0438837
-0.265086 -0.227038 -0.0314868
0.0910928 -0.0190487 -0.189189
0.0727776 -0.0257959 -0.186735
0.155838 -0.25519 -0.0336569
-0.180185 -0.0425533 -0.188128
0.123322 -0.382352 -0.0362097
-0.294291 -0.119653 -0.192643
-0.263377 -0.396691 -0.0379466
-0.213118 -0.470653 -0.0223291
-0.277345 -0.370395 -0.0956584
-0.287862 -0.152895 -0.180516
0.106268 0.252105 -0.233065
-0.298396 -0.169167 -0.185391
-0.301092 -0.185284 -0.187154
0.0634756 0.168411 -0.264103
0.0188525 -0.251386 -0.178805
-0.0806724 -0.424389 -0.252902
-0.17086 -0.496373 -0.0386415
0.245187 0.487442 -0.0419453
0.0282016 -0.392153 -0.176787
0.211084 0.473498 -0.0403029
0.188275 0.453004 -0.0536187
0.00193654 -0.491761 -0.196724
0.325948 0.401086 -0.0273233
-0.0973839 -0.497349 -0.187854
0.0680017 0.328027 -0.200941
-0.276823 -0.110227 -0.181903
0.171014 0.253061 -0.197337
-0.321628 0.240809 -0.0465308
-0.140284 0.227658 -0.19501
0.192447 0.191338 -0.201277
-0.244731 0.146551 -0.136377
-0.298379 0.178931 -0.0429094
-0.290295 0.163257 -0.031216
0.282134 0.165054 -0.039648
-0.170131 0.0836956 -0.19253
0.184881 0.0898535 -0.201481
-0.141459 0.0781403 -0.194941
0.0750493 0.181158 -0.260887
-0.115609 -0.0363774 -0.0360032
-0.227358 0.0660024 -0.197997
-0.0622007 -0.0735404 -0.0374452
0.201711 -0.00484129 -0.118469
-0.247642 -0.0984315 -0.178567
-0.131935 -0.161407 -0.0425083
-0.0876102 -0.174218 -0.0216177
0.139991 -0.174934 -0.0336771
0.129279 -0.160803 -0.0398061
-0.182728 0.0297593 -0.202608
-0.228053 -0.183683 -0.0389217
0.167206 0.0424167 -0.196737
0.0501768 -0.0647363 -0.129141
-0.214148 0.0179528 -0.199185
-0.0570228 0.000922323 -0.185581
-0.172087 0.0157521 -0.200074
0.148563 -0.266415 -0.0431398
-0.277772 -0.36371 -0.0401381
-0.254349 -0.410571 -0.0309056
0.161172 -0.455292 -0.0406806
0.0636384 -0.0730101 -0.112144
-0.215768 -0.097405 -0.197194
-0.221956 -0.113554 -0.202321
0.129083 -0.499141 -0.0561922
0.221416 0.470909 -0.0569305
0.229155 0.481742 -0.0422402
-0.170559 -0.153792 -0.193532
-0.0336249 0.398323 -0.0485506
-0.0637639 -0.173136 -0.194041
-0.0780378 0.382713 -0.0314842
0.0331326 -0.313034 -0.199522
-0.051704 -0.077122 -0.0509908
-0.267054 -0.0721533 -0.175997
-0.151561 -0.166531 -0.0308805
-0.166194 -0.161643 -0.0426438
-0.201911 -0.172763 -0.0346982
0.147941 -0.226524 -0.0437616
-0.00932247 0.177601 -0.262864
-0.22217 -0.416309 -0.195923
-0.012423 0.15818 -0.262997
0.128191 -0.400266 -0.0341608
0.304914 0.286916 -0.0582966
0.28137 0.175486 0.0562298
-0.0279173 -0.494164 -0.19302
-0.133346 -0.497439 -0.182121
-0.147865 -0.494368 -0.193625
-0.271622 0.138504 -0.043616
-0.234788 0.0923512 -0.0288637
-0.103277 0.264909 -0.204846
0.197975 0.170362 -0.19952
-0.122018 -0.02408 -0.0708441
-0.227635 0.108234 -0.197381
-0.0911797 -0.0544987 -0.0368114
-0.143968 0.115988 -0.200612
-0.220887 -0.473258 -0.0541487
-0.209513 -0.482244 -0.0421059
-0.266746 -0.396956 -0.0754147
-0.157256 0.15179 -0.19593
0.302163 0.453406 -0.0526147
-0.174708 0.06476 -0.195947
0.069318 0.412566 -0.0434829
-0.196857 0.0438936 -0.195142
-0.0182052 -0.0339622 -0.164423
0.279233 0.127455 -0.0600821
-0.211863 0.0668649 -0.0289923
-0.123656 0.236351 -0.203466
0.146952 0.0326621 -0.204207
-0.133592 -0.0166818 -0.059785
-0.0175252 -0.0106499 -0.191397
0.188893 -0.0524867 -0.0266046
0.0382076 -0.0360575 -0.177379
0.0092393 -0.498889 0.0342252
-0.191142 -0.051275 -0.200316
-0.276039 -0.0617343 -0.190795
-0.206339 -0.0819431 -0.207527
0.111072 -0.116766 -0.0502078
0.104129 -0.146501 -0.0534416
-0.21933 -0.133201 -0.204795
-0.1493 -0.157273 -0.0516211
0.0372931 0.415152 -0.0108494
-0.293094 -0.277521 -0.144403
-0.251525 -0.131858 -0.178585
-0.302699 -0.155393 -0.196694
-0.293887 -0.24626 -0.188252
0.0348735 0.414493 0.0084166
0.00128124 -0.412094 -0.206713
-0.00606059 -0.428215 -0.202147
0.151809 -0.490678 -0.0342128
0.0457539 -0.499128 -0.0500559
0.23933 0.474983 -0.0589521
-0.226415 -0.0945383 -0.182791
-0.204426 -0.153457 -0.0976824
0.308083 0.437252 -0.0561591
0.317422 0.417454 -0.0526719
-0.172634 -0.472671 -0.206461
0.00603195 -0.474886 -0.203393
-0.285721 -0.328756 -0.130465
-0.0680591 0.380962 -0.0639822
-0.325436 0.298028 -0.0475251
-0.248412 0.112116 -0.0588415
-0.212753 0.067471 -0.0469944
-0.0264702 0.167415 -0.259645
0.178647 -0.0553265 -0.0455185
0.114216 0.310717 -0.19691
-0.0784503 0.290417 -0.205011
-0.110648 -0.159947 -0.0527403
0.127783 0.30005 -0.197416
0.18369 0.178246 -0.210536
0.184496 0.141338 -0.210333
-0.145451 0.138035 -0.202945
-0.215678 -0.174118 -0.0435582
-0.212379 0.0971349 -0.208401
0.134625 -0.2016 -0.0505296
-0.199133 0.0803007 -0.208742
-0.265399 -0.205835 -0.0639702
-0.287041 -0.313183 -0.0444637
-0.290667 -0.31401 -0.0647108
-0.250057 -0.426582 -0.059103
0.161237 -0.445805 -0.0566303
-0.223442 0.00127879 -0.210782
0.0955729 0.148081 0.242603
0.159565 0.434247 -0.0460871
-0.17317 -0.0233553 -0.185979
0.084137 0.330486 -0.193535
-0.0821752 0.378037 -0.0473013
0.317787 0.334429 -0.052438
-0.321968 0.274418 -0.0653542
-0.207298 -0.14656 -0.204623
-0.315771 0.223791 -0.0566149
0.00105521 -0.235192 -0.212314
-0.278904 0.151704 -0.0561154
-0.284663 0.164426 -0.0688428
0.0883187 -0.134124 -0.0574306
-0.265773 -0.397716 -0.0935242
0.0125592 -0.402189 -0.19915
-0.210878 -0.416907 -0.209857
-0.00817461 -0.447647 -0.204598
0.0289475 -0.148727 -0.0558398
-0.182042 -0.158927 -0.0550499
0.124021 -0.225791 -0.0663892
-0.235869 -0.00238915 -0.194153
0.136152 -0.302365 -0.047481
-0.0268226 -0.455501 -0.20583
0.0807382 0.144594 -0.260859
-0.285381 -0.346931 -0.0673872
0.167571 -0.464248 -0.0544593
-0.140593 -0.495458 -0.0648665
-0.155655 -0.495828 -0.0519463
0.133628 -0.0591166 -0.100947
0.0368373 -0.499161 -0.0653893
-0.0143355 -0.483798 -0.20305
0.259041 0.467747 -0.0673257
-0.0526092 -0.479707 -0.20332
-0.272305 -0.354088 -0.154
0.114979 0.313118 0.192031
0.289247 0.246125 -0.0591135
0.0313594 0.334355 -0.201619
0.297969 0.264944 -0.0576737
-0.060855 0.296383 -0.210266
-0.312244 0.208817 -0.0456517
0.278662 0.175749 -0.0564906
-0.169675 -0.497582 -0.107577
-0.179244 0.0290406 0.0280842
-0.0692498 -0.0662428 -0.0558689
0.115534 -0.0893364 -0.0640394
-0.230443 0.0872334 -0.203222
0.0929757 -0.116945 -0.0587
-0.216248 0.077572 -0.208642
-0.299176 0.180203 -0.0250843
-0.166408 -0.153352 -0.06456
-0.115764 0.0647357 -0.20198
-0.187633 -0.462092 -0.201266
0.12558 -0.245184 -0.0678352
0.114596 -0.349921 -0.0614839
-0.0848092 0.0571032 -0.214897
-0.121902 -0.496994 -0.0566593
-0.204148 0.00872843 -0.213276
0.211107 0.109288 -0.182169
0.147246 -0.497251 -0.0520926
0.0098976 0.402948 -0.0779749
-0.254038 0.35501 -0.0678016
0.0335487 -0.00203621 -0.211155
-0.313967 0.323227 -0.0714175
-0.178463 -0.013704 -0.204423
-0.139388 0.0968631 -0.199709
-0.266026 -0.042765 -0.200448
-0.315387 0.304833 -0.077332
-0.190593 0.0405688 -0.0513669
-0.0578319 -0.0690259 -0.0675397
-0.0403006 -0.0785758 -0.0627606
-0.0297301 -0.0785794 -0.0743765
-0.152067 -0.150224 -0.0723921
-0.13112 -0.155375 -0.0605001
-0.191154 -0.153347 -0.197014
-0.24606 -0.372533 -0.19707
0.027772 -0.164736 -0.0639352
0.0162894 -0.346434 -0.230781
-0.258211 -0.369961 -0.176386
-0.240653 -0.17859 -0.0689273
0.0362391 -0.339872 -0.190223
-0.150137 0.247132 0.150679
0.000496778 -0.400171 -0.219048
0.126602 -0.265192 -0.06778
-0.178122 -0.4559 -0.214155
-0.157296 -0.482889 -0.207037
-0.138346 -0.489104 -0.209157
-0.28315 -0.296322 -0.179561
0.00260294 0.314952 -0.216886
0.122536 -0.389214 -0.0513683
-0.258463 -0.412129 -0.066914
-0.031248 0.313187 -0.210257
-0.0673951 0.27938 -0.217968
-0.241813 -0.44034 -0.0539486
-0.0598223 0.376157 -0.0948161
-0.113906 0.274405 -0.191979
0.181724 0.441289 -0.0684562
-0.117841 0.125661 -0.219504
0.307447 0.422348 -0.0650985
0.295004 0.433144 -0.0723286
0.0701999 0.40594 -0.075741
0.0612377 0.409392 -0.0617476
0.0887068 -0.00220369 -0.205456
0.0318144 0.41113 -0.0494164
-0.0194429 0.32739 -0.201676
-0.160457 0.339438 -0.0693965
-0.308048 0.208167 -0.0667179
-0.214495 0.0711351 -0.0682427
0.0184296 -0.0840058 -0.0892133
0.0821439 -0.105255 -0.0661656
-0.244753 -0.410719 -0.160034
-0.3073 -0.154028 -0.214953
-0.0777337 0.316528 -0.183475
-0.175972 -0.158378 -0.210543
0.0452246 -0.102415 -0.0704253
-0.181287 -0.152853 -0.0736578
-0.291423 -0.2641 -0.0774617
0.12221 -0.317259 -0.06056
0.0780114 -0.0536062 -0.145235
0.11836 -0.368488 -0.0534175
-0.242635 -0.44211 -0.0715454
-0.279138 -0.273776 -0.210933
0.02646 -0.304883 -0.215526
-0.0118033 -0.417761 -0.218138
-0.194514 -0.420467 -0.223886
-0.0368619 -0.442815 -0.219713
-0.163278 -0.464216 -0.219096
0.148642 -0.0912547 0.0755209
-0.0714766 -0.484334 -0.210194
-0.200305 -0.492977 -0.082896
-0.314646 0.271677 -0.081545
-0.116318 -0.487874 -0.215238
-0.0412035 0.299372 -0.216792
-0.185351 0.0357568 -0.0841766
0.102894 0.286805 -0.217559
0.142015 0.251022 -0.216953
-0.109919 0.194931 -0.222672
0.186312 0.159916 -0.209946
-0.12361 0.161137 -0.21768
-0.0988135 -0.0378874 -0.0837798
0.106716 0.0110298 -0.209407
0.048914 0.00963149 -0.220248
0.0245747 0.0108358 -0.220257
-0.187729 -0.0250518 -0.216051
-0.00473756 0.375126 -0.146217
0.110583 -0.36797 -0.071533
0.129394 -0.411421 -0.0722563
-0.298646 -0.101623 -0.221325
-0.217267 -0.117991 -0.216902
0.250402 0.332682 -0.122812
-0.243398 -0.335131 -0.227639
0.235095 0.451278 -0.0848369
0.0269722 -0.321869 -0.217187
0.131179 -0.0148869 -0.173983
0.312635 0.403774 -0.0645137
0.304318 0.377477 -0.0801555
-0.0937438 -0.486322 -0.214775
0.0884456 0.297545 -0.216659
-0.0519608 0.270583 -0.229427
-0.0717437 0.262469 -0.224161
-0.289987 0.343074 -0.078141
-0.303493 0.298126 -0.0947361
0.277104 0.144033 -0.0692933
-0.102194 0.125642 -0.228706
-0.105134 0.0933967 -0.219823
0.13745 0.0728349 -0.227281
0.00203471 0.015445 -0.219592
-0.267331 0.137693 -0.0620514
-0.258472 -0.0372499 -0.21931
-0.265419 0.141215 -0.0809877
-0.193779 -0.0434078 -0.218359
-0.281461 -0.0680356 -0.224003
-0.0528721 0.355754 -0.149337
-0.161703 0.0130741 -0.0929491
-0.0925411 -0.166804 -0.206891
0.200889 -0.0302062 -0.0714522
-0.0201895 -0.233212 -0.238065
-0.0763895 -0.0526309 -0.0862086
0.128006 -0.142306 0.120008
-0.266303 -0.310963 -0.209498
0.0258813 -0.339699 -0.218013
-0.283016 -0.131676 -0.182199
-0.252353 -0.340463 -0.212368
0.144405 -0.0482642 0.154809
-0.201667 -0.483951 -0.0240774
-0.155724 -0.44937 -0.232211
-0.081801 -0.471587 -0.222563
-0.131251 -0.478297 -0.221665
0.0426693 0.294548 -0.229778
-0.0234065 0.299317 -0.22289
0.104765 0.268979 -0.226363
-0.0746433 0.241454 -0.230572
0.170141 0.166712 -0.220984
-0.0119813 0.140063 -0.262573
0.170258 0.149389 -0.22117
-0.0878903 0.134666 -0.237062
-0.0781791 0.0996035 -0.235536
-0.0656929 -0.0076162 -0.171858
0.151351 0.0852176 -0.223543
-0.0411208 0.0455222 -0.226647
-0.0763902 0.00550657 -0.180701
-0.0290536 0.0295387 -0.220578
0.12949 -0.419823 -0.0889221
-0.215171 -0.0219248 -0.233708
-0.229446 -0.0125617 -0.223015
-0.247794 -0.0375445 -0.237233
0.244396 0.436371 -0.0962905
-0.030424 0.392693 -0.0798059
-0.18521 -0.496489 -0.0944001
-0.301502 -0.113868 -0.209268
-0.214233 -0.102948 -0.22911
-0.302557 0.313906 -0.0900955
-0.25713 -0.0308025 -0.184928
-0.120924 -0.166999 -0.22077
0.288093 0.260254 -0.0727192
-0.304084 -0.192128 -0.202374
-0.0589516 -0.195972 -0.231391
0.00955412 -0.274175 -0.232478
0.0418955 -0.492078 -0.168302
-0.00723713 -0.3916 -0.234285
-0.028242 -0.425512 -0.227184
-0.0455885 -0.430771 -0.234986
0.273704 0.180162 -0.0765749
0.271781 0.195958 -0.0801008
0.0876528 0.26032 -0.236598
-0.237749 0.318526 -0.117838
-0.209839 0.19741 -0.171471
-0.256705 0.126211 -0.0702773
-0.206083 0.0604563 -0.104347
0.156076 0.135719 -0.228894
-0.0506853 0.0619853 -0.232532
0.106718 0.0593779 -0.235215
-0.213443 0.0739264 -0.0899633
-0.258958 0.211121 -0.14508
0.238143 0.0192692 -0.0875113
-0.260006 -0.0494359 -0.237737
-0.284812 -0.080684 -0.239683
-0.0451556 -0.0707926 -0.0788079
-0.222752 -0.16109 -0.0905131
0.00882751 -0.178323 -0.0818938
-0.240806 -0.0125506 -0.205944
0.079688 -0.202794 -0.0843634
0.0970919 -0.207607 -0.0782541
-0.299971 -0.20775 -0.21703
-0.016149 -0.407774 -0.23065
-0.0633899 -0.439861 -0.236571
0.0544016 -0.0239107 -0.191685
0.10646 -0.287272 -0.0848281
0.0599828 0.299827 -0.223268
0.0749696 0.287528 -0.226795
0.105125 -0.319365 -0.0802609
0.0311382 -0.424687 -0.167983
-0.280974 -0.362624 -0.0792076
-0.273601 -0.381449 -0.0846184
0.166483 -0.457802 -0.0736682
-0.0721629 0.142666 -0.244961
0.250962 0.44892 -0.0854186
-0.135191 0.0305944 -0.175774
0.119534 -0.49937 -0.0746169
-0.034776 0.0567289 -0.235255
0.0891977 0.0875184 -0.250355
0.0813627 0.0713499 -0.247369
-0.0192296 0.058402 -0.240541
0.0673106 0.0587376 -0.245479
0.0129791 0.0460557 -0.240895
0.285942 0.424648 -0.0843482
-0.0218393 -0.397348 -0.24293
-0.232927 -0.0274907 -0.236002
-0.218646 -0.038433 -0.242402
0.0510881 0.405319 -0.0806127
-0.0714099 -0.184371 -0.225136
-0.279159 -0.233251 -0.243378
-0.105471 0.227849 -0.217648
-0.00155473 -0.0116496 -0.195727
-0.147731 0.292435 -0.151719
0.300179 0.414073 -0.0768892
-0.0158671 0.284914 -0.233292
-0.0376509 0.237182 -0.246603
-0.0719754 0.374689 -0.0804918
0.128963 0.186644 -0.241592
0.262926 0.0719391 -0.0882262
-0.204443 0.0605378 -0.0815014
-0.171437 0.0232708 -0.108102
0.100483 -0.498911 -0.0441961
-0.305868 -0.132647 -0.223052
-0.149925 0.0051424 -0.10529
0.0298187 -0.0926178 -0.0776626
-0.305732 -0.169939 -0.227003
-0.196229 -0.169053 -0.254305
-0.11162 -0.176914 -0.235141
-0.00517795 -0.176448 -0.0805054
-0.0328025 -0.218001 -0.235
0.00526132 0.111531 -0.262297
-0.252736 -0.184219 -0.0815593
-0.136161 -0.496661 -0.100964
-0.143586 -0.496622 -0.0837925
0.290431 0.404001 -0.0884098
-0.227609 -0.362302 -0.229202
0.216466 0.265759 -0.1501
-0.0384771 -0.401334 -0.251553
-0.14978 -0.419357 -0.251877
0.0330812 -0.498695 -0.0980057
-0.302455 0.227202 -0.0941076
0.016879 0.273113 -0.242517
0.0046338 0.286515 -0.235356
-0.0619513 0.206069 -0.244423
-0.18457 0.0370416 -0.10141
-0.219674 -0.152618 -0.17309
-0.01572 0.0718658 -0.247461
0.139019 -0.0660297 -0.0814966
0.0505564 0.0476063 -0.242385
-0.0683946 0.0148374 -0.193327
-0.203214 -0.0566468 -0.229571
-0.209235 -0.0872706 -0.22464
-0.015575 -0.378814 -0.249101
0.204195 0.269885 -0.160455
-0.214665 -0.139569 -0.241271
-0.305598 -0.151506 -0.234566
-0.238216 -0.171192 -0.0852458
0.23775 0.0311734 -0.104878
-0.258661 -0.109904 -0.178966
0.0837355 -0.235832 -0.0968243
0.0235509 0.101946 -0.261744
0.00545386 -0.354922 -0.241377
-0.116184 0.0257714 -0.176741
0.0868518 -0.370379 -0.0966383
0.0361548 0.268994 -0.243741
0.0891377 0.244237 -0.242413
-0.0498463 0.222625 -0.246153
0.107999 -0.388074 -0.0830522
-0.235522 -0.453163 -0.102201
0.125359 0.169629 -0.24471
0.113776 0.156877 -0.24994
0.16569 -0.478949 -0.0811787
0.157242 -0.484004 -0.0974855
-0.0284538 0.0827662 -0.248435
0.150227 0.277964 -0.198376
-0.0115511 0.0885455 -0.254169
0.217545 0.426773 -0.102943
0.0305653 0.0544567 -0.246176
-0.231612 -0.0441156 -0.249676
0.281588 0.359252 -0.103612
-0.260681 -0.0623237 -0.253168
-0.209981 -0.0717141 -0.237927
0.292901 0.368296 -0.093128
-0.226481 0.340409 -0.0923014
-0.307863 0.259224 -0.0923273
0.261252 0.226076 -0.100407
-0.0925979 -0.180048 -0.23134
-0.0777986 -0.205104 -0.253069
-0.0606904 -0.206119 -0.244132
-0.0341691 -0.233515 -0.25047
-0.0313172 -0.253622 -0.262504
-0.015451 -0.267249 -0.256862
0.269222 0.213811 -0.0852492
0.00751051 -0.334969 -0.244708
0.266455 0.179713 -0.0985219
0.274274 0.132255 -0.0797208
-0.126115 -0.0160073 -0.0901051
0.0476131 -0.20005 -0.09528
0.158717 0.0261878 -0.192738
0.0355126 0.237414 -0.255695
-0.00646896 -0.117189 -0.0335333
0.239905 0.197328 0.148859
-0.0281567 0.222372 -0.252878
-0.0431966 0.210407 -0.250681
-0.293739 -0.267231 -0.0957341
0.10011 -0.305574 -0.0880487
0.0882073 -0.316457 -0.0969607
-0.0289608 0.0980298 -0.252796
0.0467078 0.0663469 -0.250927
0.0551564 0.0948855 -0.259463
0.109876 -0.499178 -0.0909144
0.165423 0.418409 -0.0874493
0.275404 0.395848 -0.101358
0.267683 0.355752 -0.113002
-0.109465 0.34946 -0.0991
-0.111338 0.35459 -0.0802472
-0.210549 0.334812 -0.0980026
-0.299443 -0.185898 -0.239958
-0.163029 -0.18093 -0.251959
-0.016972 -0.286012 -0.264181
-0.0524303 -0.0307109 -0.150206
0.290989 0.329005 -0.0933125
-0.213508 -0.357221 -0.244816
-0.225555 -0.321301 -0.25255
0.280014 0.318563 -0.102108
-0.0821441 -0.440264 -0.242737
-0.000924226 0.240459 -0.25378
-0.0283024 0.204037 -0.25602
0.10087 0.189522 -0.252354
-0.305105 0.279862 -0.0957331
-0.198448 0.0243804 -0.202441
-0.0621121 -0.494694 -0.192222
0.176495 0.0313445 -0.182711
0.280653 0.0808739 -0.0112446
0.0059238 0.0951415 -0.258664
-0.161799 0.0506679 -0.194023
0.0301852 0.0723531 -0.253531
0.0894629 -0.0830325 -0.0861419
-0.214165 -0.0889721 -0.242259
-0.217039 -0.106285 -0.246644
-0.0293332 -0.0656687 -0.103965
-0.128021 0.0601067 -0.193785
-0.240143 0.096594 -0.19128
0.0375783 -0.0821877 -0.0959131
-0.181611 -0.181067 -0.259359
-0.168804 -0.193007 -0.26627
-0.245462 -0.0245356 -0.22077
-0.0680101 -0.219257 -0.260384
-0.151337 0.0400575 -0.184034
0.0916119 -0.294999 -0.09733
-0.289629 -0.320983 -0.115338
-0.0547699 -0.399314 -0.260409
0.0528163 -0.00662805 -0.20767
-0.0964971 -0.41545 -0.260962
-0.218984 0.162163 -0.165084
-0.292145 -0.311419 -0.101475
-0.281971 -0.35577 -0.100916
0.0746835 -0.359145 -0.103077
-0.0114406 0.209966 -0.258854
0.0254397 0.217538 -0.261231
0.007407 0.211342 -0.261394
0.0531012 0.415152 -0.0270194
-0.0144406 0.193336 -0.260633
-0.00536327 -0.497955 -0.0936025
0.0109909 0.179513 -0.266158
0.237452 0.422755 -0.105231
0.0787878 0.393625 -0.110589
-0.0272498 0.149501 -0.259671
0.00483616 0.131575 -0.26486
-0.222867 0.327625 -0.109055
0.263312 0.263632 -0.104518
0.0609097 0.114959 -0.262963
0.263651 0.244201 -0.0991991
-0.245869 -0.0849071 -0.272687
0.224823 0.160834 -0.173404
-0.229671 -0.06095 -0.257128
-0.219189 -0.0739104 -0.251744
-0.28613 -0.0958507 -0.254246
-0.222082 -0.0930681 -0.256808
-0.301399 -0.130271 -0.243776
-0.299911 -0.148203 -0.251459
-0.261196 0.149944 -0.112503
-0.151108 -0.191567 -0.261461
-0.268855 -0.218626 -0.0506318
-0.0506674 -0.256212 -0.275011
-0.259825 -0.269576 -0.245515
-0.032162 -0.270732 -0.270785
0.266549 0.110203 -0.097472
-0.211249 -0.329747 -0.258928
-0.198214 0.0445854 -0.109078
-0.188444 -0.347088 -0.265818
0.0282532 -0.195925 -0.102895
