0.134576342051454 -0.265274361400189 0.20064647358623
0.134404889065218 -0.495131595812861 0.199259895626698
0.133492812891018 0.458470076601459 0.200676320688498
0.134833246864223 0.239171697134312 0.199063295388653
0.133926236762596 0.223955778679769 0.200039948728904
0.133461500900296 -0.257533036286508 0.200222266304514
0.134372234260079 0.0237514877773369 0.200918698690756
0.133721091341899 -0.197469252601703 0.199987517929624
0.133825159459212 -0.451370494705039 0.200957579271828
0.135962248603778 -0.241362804040651 0.200567369609668
0.136064912869655 0.167853907895138 0.200002288888211
0.136845149082919 -0.125601458784753 0.200304971465194
0.137356151005585 -0.366164891506699 0.1994135258034
0.136560716574602 0.303420789208655 0.200445234534745
0.13826792199469 -0.0839603564561907 0.200398174993133
0.13921198156682 -0.470785149693289 0.200139500106815
0.138920285653249 0.150932615131077 0.200362407300027
0.13847526474807 -0.117533158360546 0.199042481765191
0.139047486800745 -0.195640766624958 0.199202459791864
0.138635486922819 0.399188299203467 0.200283181249428
0.139003112887967 -0.0415935850093082 0.200952513199255
0.138733512375256 0.284061983092746 0.199983428449355
0.140077303384503 0.184273110141301 0.200556138798181
0.139908169804987 -0.0990752586443678 0.200114841151158
0.139659932248909 0.0290136722922453 0.200971129490036
0.140547166356395 0.0751740165410321 0.200562730796228
0.139053102206488 -0.0882732932523576 0.200599780266732
0.139932950834681 -0.492632740256966 0.199069643238624
0.139301767021699 -0.380971922971282 0.199418469801935
0.140770805993835 -0.294578966643269 0.199498794518876
0.140456526383251 -0.0371251869258706 0.200401104770043
0.141120914334544 -0.0557950682088687 0.200847041230506
0.141083498641926 0.049564409314249 0.199148014770959
0.141103579821162 0.0779768364513077 0.200893124179815
0.141100222785119 0.178832636494034 0.199292611468856
0.141778649250771 -0.181119510483108 0.200543870357372
0.141796777245399 -0.405053163243507 0.200510849330119
0.141823694570757 0.0560657673879207 0.199084292123173
0.143616290780358 0.320690359202857 0.200057039094211
0.143249214148381 0.186793084505753 0.199901699880978
0.143604388561663 0.104657460249641 0.199941251869259
0.143826319162572 0.495976042970061 0.200085116122929
0.143794579912717 -0.0579242225409711 0.200397442548906
0.143708578753014 -0.332038117618336 0.200854121524705
0.144130649739067 -0.204753410443434 0.200421491134373
0.145064699240089 -0.481200994903409 0.200287331766717
0.143969389934996 0.440991393780328 0.200130649739067
0.145493118076113 -0.420122837000641 0.200562547685171
0.144142002624592 -0.0274738914151433 0.199762474440748
0.14514038514359 -0.460961912900174 0.200125156407361
0.145401135288553 -0.453975249488815 0.200540513321329
0.146292031617176 0.0458604388561663 0.200128330332347
0.146688100833155 -0.0489133884701071 0.199639240699484
0.145359141819514 -0.373498428296762 0.199382702108829
0.145757469405194 -0.199638935514389 0.199328501236
0.147031495101779 -0.298009613330485 0.2001671498764
0.147499343852046 0.43774434644612 0.199316599017304
0.147011169774468 0.248086703085421 0.199832911160619
0.148796685689871 -0.180151280251473 0.199600299081393
0.147856837672048 -0.406269142735069 0.199435254982147
0.148854365672781 -0.00287047944578388 0.199004943998535
0.150351298562578 0.492563035981323 0.199896816919462
0.150366374706259 -0.311963164159063 0.200324137089145
0.150711539048433 0.200049836725974 0.1996930753502
0.150003997924741 0.0674777367473372 0.200781487472152
0.149956572161016 0.496163304544206 0.199009521774956
0.151066286202582 -0.454350505081332 0.200699880977813
0.151778221991638 -0.347370311593982 0.200995239112522
0.151498794518876 -0.227585100863674 0.200015839106418
0.150682790612506 -0.377835047456282 0.200380596331675
0.151239020966216 -0.491816736350597 0.199875331888791
0.152048249763482 -0.0888923917355876 0.200593554490799
0.151385998107852 0.428991027558214 0.199237311929685
0.151893215735343 0.377659016693625 0.199836512344737
0.152405621509445 -0.0554188970610676 0.200448591570788
0.152786797692801 0.210149388103885 0.199641010773034
0.152902829065828 0.385308969389935 0.19938032166509
0.152910092471084 0.332003387554552 0.199432996612445
0.152929990539262 0.0765852534562212 0.199191412091433
0.15363948484756 0.179357493820002 0.200883724478896
0.154455977050081 0.321940458388012 0.200346903897214
0.153817896053957 0.261538651692251 0.199523880733665
0.155031495101779 -0.024965697195349 0.199434705648976
0.155646626178777 -0.468594958342235 0.199528946806238
0.154167821283609 -0.390155919064913 0.199822717978454
0.155957731864376 0.413066774498734 0.199974700155644
0.154448408459731 -0.0628268379772332 0.200550096133305
0.155604327524644 0.0313029267250587 0.20047642445143
0.155319589831233 0.275296151615955 0.200284829248939
0.156014984588153 0.40631333353679 0.200208532975249
0.154966978972747 -0.110457808160649 0.200967528305918
0.155409924619282 -0.374266090884121 0.200099948118534
0.156478499710074 0.201268074587237 0.199137882625813
0.156805658131657 -0.216752189703055 0.20077111117893
0.157630207220679 0.252753959776605 0.200165074617756
0.15791262550737 0.0199380169072542 0.199768028809473
0.157185247352519 -0.328147434919279 0.19991732535783
0.15808969389935 0.060370647297586 0.200102938932463
0.157575762199774 -0.467591265602588 0.200069246498001
0.15759175389874 0.220048371837519 0.199289864803003
0.158624744407483 -0.213747520371105 0.199495864741966
0.157957182531205 0.124593981749931 0.19920618305002
0.157974578081606 0.447542374950407 0.19930286568804
0.157701315347758 0.441739768669698 0.199474623859371
0.157666096987823 -0.473385448774682 0.199232001709037
0.158032380138554 0.333129337443159 0.1998933988464
0.159528519547105 -0.238068391979736 0.200717703787347
0.160616077150792 0.181933988464003 0.199991363261818
0.159377697073275 0.40654045228431 0.200996826075014
0.159931241798151 -0.0359347819452498 0.199305734427931
0.15959639271218 0.158626026184881 0.199650288399915
0.160644520401624 0.0196434522537919 0.199717734305856
0.160808832056642 -0.420730643635365 0.200017548142949
0.160450727866451 -0.186832209234901 0.200388531144139
0.160791375469222 -0.165890957365642 0.199337839899899
0.16069304483169 -0.164915646839808 0.199764000366222
0.160894344920194 -0.413427076021607 0.199475173192541
0.161598895229957 0.288583849604785 0.199010864589373
0.161360545670949 -0.255380993072298 0.200931455427717
0.161561967833491 -0.0919043244727927 0.200360393078402
0.161679525131993 -0.393625324259163 0.200793206579791
0.163195318460646 -0.270904843287454 0.199417676320688
0.163349131748405 0.355818994720298 0.200544663838618
0.163206427198096 0.423702230903043 0.19979555650502
0.16280779442732 0.347949674977874 0.200555101168859
0.162808038575396 -0.124305520798364 0.200701284829249
0.163379406109806 0.194762688070315 0.200774956511124
0.164711600085452 -0.491203192236091 0.200592944120609
0.163332346568194 0.0159214758751183 0.199988738670003
0.165387157811212 0.165025940733055 0.199979461043123
0.164643177587207 -0.330825983458968 0.199134830774865
0.165025452436903 -0.418259132663961 0.199113040559099
0.166186010315256 -0.00936237678151797 0.199954435865352
0.166440778832362 -0.27981014435255 0.200968932157353
0.166708304086428 -0.0895972472304453 0.200831232642598
0.165890652180547 0.120396282845546 0.199769127475814
0.165853175450911 0.289204351939451 0.199374034852138
0.165549089022492 0.338621082186346 0.199639973143712
0.167319223609119 0.136711355937376 0.200329264198737
0.167397961363567 0.386796258430738 0.200043427838984
0.166999877925962 0.235736228522599 0.200039826654866
0.167582293160802 0.419345042268136 0.199641376995148
0.168049409466842 0.183659749137852 0.199139530625324
0.167272041993469 -0.346517624439222 0.199491897335734
0.167631611072115 0.321148442030091 0.199738670003357
0.167504531998657 -0.39712347788934 0.199181524094363
0.167409192175054 0.152546494949187 0.20026499221778
0.167601947080905 -0.487782006286813 0.200924680318613
0.168220923490097 0.231480178228095 0.200631275368511
0.168272865993225 0.285554826502274 0.200055207983642
0.169056947538682 0.0928476516006958 0.200745414593951
0.168974303415021 0.282429731131931 0.200949583422346
0.168009369182409 -0.278164952543718 0.200821710867641
0.168392864772485 0.303847193823054 0.200500961333048
0.168373210852382 -0.284818964201788 0.200737479781487
0.168997924741356 0.219005432294687 0.200066682943205
0.16850260933256 0.485375804925687 0.200056794946135
0.169666219061861 -0.0986952421643727 0.200579393902402
0.169946562089908 0.477936796166875 0.200567369609668
0.169337168492691 -0.154057405316324 0.199501297036653
0.171003906369213 -0.00278594317453537 0.199491348002564
0.170094149601733 -0.243467970824305 0.19975771355327
0.171193792535173 0.0752114932706686 0.200192968535417
0.170570970793786 -0.30886077455977 0.200962218085269
0.170465620899075 -0.198585375530259 0.200457319864498
0.170189550462355 -0.382533738212226 0.199388927884762
0.172244239631336 0.376065523239845 0.200514633625294
0.173071535386212 -0.432704947050386 0.200513595995972
0.172376995147557 0.495145329142125 0.200174657429731
0.173270271919919 0.489016357921079 0.199773094882046
0.174362346263009 0.323006775109104 0.200970458082827
0.174169713431196 0.111887050996429 0.20074779503769
0.174466048158208 0.0875631275368511 0.199340891750847
0.175482070375683 0.0047186193426313 0.200488143559069
0.174287942136906 -0.39305182042909 0.200854121524705
0.17404483169042 0.0146913357951598 0.200445966978973
0.174882869960631 -0.092641407513657 0.199537186803796
0.175887905514695 0.39478972746971 0.199677877132481
0.175107852412488 -0.0317823114719077 0.20079381694998
0.176075350199896 0.223256416516617 0.199914761803034
0.176288003173925 0.150774224066897 0.199388073366497
0.176848323007904 -0.149629535813471 0.200984130375072
0.175913602099673 -0.211341013824885 0.199827417828913
0.176102328562273 0.4373739127781 0.199186651203955
0.177315195165868 -0.147750816370129 0.199412793359172
0.177138981292154 0.044600878933073 0.199811181981872
0.17716888943144 0.48639255958739 0.20051426740318
0.176385784478286 -0.481133487960448 0.199270088808863
0.178334940641499 -0.352363505966369 0.200505905331584
0.177850123599963 -0.201780236213263 0.199610065004425
0.179026429029206 0.312160008545183 0.19951832636494
0.17902038636433 -0.29448167363506 0.199639057588427
0.178395062105167 -0.357519669179357 0.199983184301279
0.178243812372204 0.266558641315958 0.199868923001801
0.180077059236427 0.291060365611744 0.20010251167333
0.180490524002808 -0.38350550859096 0.20014737388226
0.17931214331492 -0.0637767571031831 0.200132969145787
0.180756767479476 -0.068586840418714 0.200499008148442
0.180473677785577 -0.273014038514359 0.199969817194128
0.180841914120914 -0.375275521103549 0.200557237464522
0.182828119754631 -0.187665974913785 0.199207525864437
0.181367442854091 -0.265932950834681 0.200301980651265
0.182969237342448 -0.319278328806421 0.200890560625019
0.183281929990539 -0.146112704855495 0.199867702261422
0.183897183141575 0.27272801904355 0.199794213690603
0.184009002960295 -0.142962645344401 0.200206946012757
0.182729483932005 -0.499070680867946 0.199551225318155
0.184242957853938 0.148957762382885 0.200632068849757
0.183359813226722 -0.339744163335063 0.200502548295541
0.184670094912564 -0.436389812921537 0.200964842677084
0.184111117893002 -0.132243324076052 0.200064363536485
0.184141941587573 0.199952970976897 0.200450666829432
0.184552537614063 -0.27294756920072 0.199905362102115
0.18442051454207 0.0223625904110843 0.199986541337321
0.184660328989532 0.170713370159001 0.199575518051698
0.184988830225532 0.17212289803766 0.199827112643818
0.185051637318033 0.427085573900571 0.200671620838038
0.185759117404706 0.0469600817896054 0.199014038514359
0.184170445875423 -0.301777855769524 0.199405774101993
0.186107882930998 -0.488906064027833 0.200575365459151
0.18561677907651 0.176336527603992 0.200827570421461
0.185093142490921 0.479230780968657 0.199310312204352
0.185948332163457 0.251891384624775 0.199166508987701
0.186562120426038 0.109903164769433 0.199964690084536
0.185801782280953 -0.246826288644063 0.200084933011872
0.185534440137944 0.111872096926786 0.200056611835078
0.186879390850551 -0.190034089175085 0.200284829248939
0.188537644581439 0.0752277291177098 0.200791192358165
0.189633136997589 0.327962553788873 0.20017239906003
0.18847758415479 0.249551469466231 0.200644276253548
0.189297372356334 0.447355662709433 0.200376018555254
0.191082949308756 -0.159191290017396 0.200561571092868
0.18992196417127 0.440888851588488 0.199109012115848
0.19202096621601 -0.346517807550279 0.200548387096774
0.191337900936918 -0.419943449201941 0.200901791436506
0.191708029419843 -0.414192602313303 0.199978789635914
0.193027527695547 0.478902462843715 0.200356242561113
0.192342753379925 0.0647965636158329 0.19947114474929
0.192671010467849 0.0849763176366466 0.199550737022004
0.192193029572436 0.237911954100162 0.199915005951109
0.193023010956145 0.426603015228736 0.200786431470687
0.193521134067812 -0.0749345683156835 0.199442335276345
0.193927701651051 -0.491798364207892 0.199779381694998
0.193533646656697 -0.255113284707175 0.199061098055971
0.193831385235145 -0.453982451857051 0.200405255287332
0.193745628223518 0.302562364574114 0.199564043092135
0.193416638691366 0.0961879024628437 0.200950193792535
0.195079531235694 0.167907071138646 0.199438856166265
0.1944769737846 0.475996856593524 0.199765404217658
0.194713614307077 -0.08357600634785 0.199087527085177
0.193851222266304 -0.417617755668813 0.199505264442885
0.194901058992279 -0.0907202063051241 0.199964323862423
0.195754966887417 0.217947660756249 0.200009674367504
0.195429395428327 -0.472471663563952 0.199509842219306
0.196498580889309 -0.300391582995087 0.200613025299844
0.196144749290445 0.452824640644551 0.1992492751854
0.196874019592883 -0.0902862331003754 0.199479567857906
0.196429914242988 0.154385723441267 0.199377086703085
0.19659172338023 -0.496798211615345 0.200723868526261
0.198427533799249 -0.0352638019959105 0.199828577532273
0.198347209082308 -0.221237678151799 0.199828882717368
0.198325785088656 -0.292002166814173 0.200482528153325
0.197690878017518 -0.318912533951842 0.200474776451918
0.198019623401593 0.0545877559739982 0.199000732444227
0.199159489730522 0.00737067781609546 0.199577715384381
0.199495193334758 0.0926526383251442 0.199146549882504
0.198537522507401 -0.0246846217230751 0.200378521073031
0.20035874507889 -0.130741752372814 0.200469222083193
0.200931211279641 -0.500250831629383 0.20004599139378
0.199816370128483 -0.499216742454299 0.299266487624744
0.200011932737205 -0.500789361247597 0.238721427045503
0.200623340556047 -0.499917447431867 0.270979491561632
0.199160649433882 -0.494240211188086 0.254045258949553
0.200596118045595 -0.48821140171514 0.278858699301126
0.200919431134983 -0.486314859462264 0.247022461622974
0.200874691000092 -0.488027863399152 0.206427106540117
0.199028992584002 -0.48405355998413 0.282274269844661
0.200415753654591 -0.483928434095279 0.236600390636921
0.200028290658284 -0.476479537339396 0.242775933103427
0.199459120456557 -0.476976012451552 0.265556169316691
0.200590990936003 -0.472318033387249 0.255012268440809
0.20074547563097 -0.472086825159459 0.258795709097568
0.200989257484664 -0.471959990234077 0.212390057069613
0.200505722220527 -0.468604113895077 0.220413373210852
0.200669850764489 -0.466720633564257 0.219525406659139
0.200104159672842 -0.4629394512772 0.287902188177129
0.200619861445967 -0.46073033845027 0.213888393810846
0.200549485763115 -0.459666829432051 0.2375590990936
0.199234015930662 -0.45799649037141 0.212397015289773
0.199138492996002 -0.455823206274606 0.269161564989166
0.200026032288583 -0.45433194982757 0.242765068514054
0.199518509475997 -0.450575060274056 0.275218085268716
0.20099652088992 -0.446633838923307 0.283422742393261
0.200689748832667 -0.445371410260323 0.285874233222449
0.19903900265511 -0.443390148625141 0.263426404614399
0.200178441724906 -0.442687795648061 0.235190618610187
0.200674245429853 -0.440665761284219 0.234074434644612
0.199036988433485 -0.438895138401441 0.285360972930082
0.200906552323984 -0.43772219000824 0.273329233680227
0.2007204504532 -0.433665181432539 0.261870754112369
0.199345408490249 -0.431177434614093 0.216443342387158
0.199503250221259 -0.430311502426221 0.263561235389264
0.19917529831843 -0.42957716605121 0.201452162236396
0.200182348094119 -0.429739829706717 0.254905880916776
0.200341837824641 -0.429007995849483 0.274571031830805
0.200612292855617 -0.424664296395764 0.207232917264321
0.199702841273232 -0.419030579546495 0.295365245521409
0.199388622699667 -0.41519104586932 0.229673055207984
0.200113803521836 -0.413528702658162 0.255142460402234
0.199984038819544 -0.403698751792962 0.241539078951384
0.199734824671163 -0.402211157567064 0.204612598040712
0.199097720267342 -0.400685598315378 0.247459974974822
0.200505355998413 -0.397882595294046 0.240533921323283
0.200155796990875 -0.398055269020661 0.221873256630146
0.200987487411115 -0.394846858119449 0.208518784142582
0.200043794061098 -0.388941648609882 0.288962462233344
0.199876857814264 -0.386827326273385 0.266097018341624
0.199516190069277 -0.386588854640339 0.272851313821833
0.200670094912564 -0.386304788354137 0.240012176885281
0.200560228278451 -0.383900112918485 0.258805536057619
0.199513382366405 -0.373150578325755 0.203369762260811
0.200540574358348 -0.366995117038484 0.282893124179815
0.199387646107364 -0.36421085238197 0.237304696798608
0.200473372600482 -0.360955015717032 0.248203161717582
0.200754936368908 -0.359812952055422 0.275283089693899
0.200514206366161 -0.359212164677877 0.245068544572283
0.199859401226844 -0.357963713492233 0.248187414166692
0.200952635273293 -0.352058870204779 0.20134827723014
0.199287301248207 -0.351889492477187 0.23597610400708
0.200931638538774 -0.349596881008332 0.232240455336161
0.199390575884274 -0.349267281105991 0.252701895199438
0.199005188146611 -0.347912747581408 0.218923642689291
0.200030671102023 -0.346169347209082 0.275597430341502
0.200759025849178 -0.344458601641896 0.294316995757927
0.200037079989013 -0.343526993621632 0.276332377086703
0.20030344553972 -0.342545335245827 0.21261326944792
0.199062990203558 -0.34191671498764 0.271667317728202
0.199747276223029 -0.339030823694571 0.200464827417829
0.199397473067415 -0.33605069124424 0.246303628650777
0.199030701620533 -0.335703268532365 0.211960905789361
0.200016388439589 -0.328923886837367 0.299082827234718
0.200984008301035 -0.327517471846675 0.281763451033052
0.199972624897 -0.326889095736564 0.246272255623035
0.200435529648732 -0.327169377727592 0.228858638264107
0.199383373516037 -0.325466994232002 0.24652476577044
0.200870052186651 -0.325029480880154 0.23643565172277
0.200028595843379 -0.321899929807428 0.243928983428449
0.200778740806299 -0.322219031342509 0.265947050386059
0.200171056245613 -0.322979247413556 0.273974578081606
0.199710776085696 -0.319190374462111 0.234652455214087
0.199900784325694 -0.31549739066744 0.244795953245643
0.200364238410596 -0.315498428296762 0.243206244087039
0.200340311899167 -0.309817407757805 0.277752830591754
0.199107119968261 -0.307853724784082 0.24715027314066
0.20067790765099 -0.304483199560533 0.266839350566118
0.200338297677541 -0.30097027497177 0.29452067629017
0.199467543565172 -0.292395184179205 0.243718161564989
0.199335398419141 -0.289604205450606 0.272544907986694
0.199200994903409 -0.289892544328135 0.21184566789758
0.200946104312265 -0.288810052797021 0.263504715109714
0.2000669881283 -0.286324198126164 0.222921323282571
0.200902279732658 -0.285821008941923 0.237441175572985
0.200317789239174 -0.285174504837184 0.242000885036775
0.199932828760643 -0.284454206976531 0.299913968321787
0.19900988799707 -0.279304757835627 0.298115512558367
0.199464003418073 -0.275522110660115 0.222911557359539
0.200327188940092 -0.271884853663747 0.273023377178259
0.200777092806787 -0.269883877071444 0.284225135044404
0.19947993408002 -0.268081575975829 0.237700582903531
0.200295693838313 -0.267088625751518 0.282982299264504
0.200553636280404 -0.26298077333903 0.212845332193976
0.199443067720573 -0.261836878566851 0.260949400311289
0.20090038758507 -0.260910092471084 0.252630237739189
0.199498855555895 -0.259095583971679 0.295491592150639
0.200987304300058 -0.255806848353526 0.300097384563738
0.199341013824885 -0.253523941770684 0.265394543290506
0.199271553697317 -0.253024842066714 0.268949644459365
0.200135593737602 -0.252031403546251 0.202533921323283
0.200928586687826 -0.250954161198767 0.231967802972503
0.199180669576098 -0.250538193914609 0.296197729422895
0.199356639301737 -0.247422986541337 0.259086550492874
0.200474471266823 -0.24362141788995 0.231650166325877
0.200573351237526 -0.23914038514359 0.228897640919217
0.199408215582751 -0.239385631885739 0.2110151371807
0.199151799066134 -0.231101443525498 0.212776543473617
0.200539048432875 -0.227981170079653 0.272690664387951
0.200478194524979 -0.224472396008179 0.252433820612201
0.199911709952086 -0.22576644184698 0.213360789819025
0.200079317606128 -0.214966612750633 0.220183080538346
0.200143101290933 -0.212428144169439 0.273441969054231
0.200840754417554 -0.207098941007721 0.209990447706534
0.200683889278848 -0.202064424573504 0.27864183477279
0.199340830713828 -0.20059056367687 0.219822229682302
0.20060277108066 -0.200121921445357 0.21482409131138
0.199535111545152 -0.198256874294259 0.252110019226661
0.20012985625782 -0.197708029419843 0.275489455854976
0.199868556779687 -0.192332682271798 0.214832880642109
0.199311166722617 -0.192975280007324 0.242700918607135
0.20083806878872 -0.191129764702292 0.26863426618244
0.200706289864803 -0.190720328379162 0.226544053468429
0.200310953093051 -0.188611377300333 0.246752861110263
0.199364268929106 -0.1876476638081 0.253730491042817
0.199784020508438 -0.178000518814661 0.22405825983459
0.200580248420667 -0.168838862269967 0.266782525101474
0.200491744743187 -0.167477309488205 0.242360820337535
0.199424878688925 -0.163080996124149 0.290137180700095
0.200086947233497 -0.162839960936308 0.287800561540574
0.200995483260598 -0.161941618091372 0.264267677846614
0.200778740806299 -0.157123050630207 0.224818353831599
0.200012543107395 -0.156577562791833 0.212910214545122
0.200565782647176 -0.154732047486801 0.24812637714774
0.200032502212592 -0.153339793084506 0.24874608600116
0.200800408948027 -0.152840083010346 0.206662160100101
0.199406384472182 -0.152817255165258 0.274795892208624
0.200011383404035 -0.149631733146153 0.247171636097293
0.200451582384716 -0.145641743217261 0.235836024048585
0.199947477645192 -0.144689321573534 0.206925717947935
0.199349253822443 -0.142814691610462 0.218463179418317
0.199432508316294 -0.14113745536668 0.209309518723106
0.200304422132023 -0.137709006012146 0.248797112949004
0.199097415082247 -0.139268318735313 0.243201727347636
0.199739524521622 -0.128666005432295 0.288487960448012
0.199617877742851 -0.126273476363414 0.297108279671621
0.200003387554552 -0.123376049073763 0.223200994903409
0.199999114963225 -0.120349101229896 0.279407483138524
0.200499435407575 -0.118719656971954 0.242551438947722
0.200952452162236 -0.114472762230293 0.253139286477248
0.2005352641377 -0.112396771141697 0.235978789635914
0.199754600665303 -0.102043244727927 0.226974120303964
0.199805810724204 -0.101158513138218 0.208000885036775
0.199424756614887 -0.100120090334788 0.265170110171819
0.200506637775811 -0.099843043305765 0.278151646473586
0.200836725974303 -0.0968292794579913 0.244790032654805
0.200872554704428 -0.09539545884579 0.280767937253945
0.199764000366222 -0.0962095095675527 0.232499801629688
0.200709341715751 -0.0951069978942229 0.259947965941343
0.200079134495071 -0.0910294198431349 0.286974303415021
0.200470503860591 -0.0783624683370464 0.209641071810053
0.199642109439375 -0.0784217352824488 0.208925901058992
0.199892422254097 -0.0788160344248787 0.211061464278085
0.199076235236671 -0.0770552995391705 0.218949034089175
0.199373546555986 -0.0684263740958892 0.249139835810419
0.199881130405591 -0.063821436201056 0.236546800134281
0.200429303872799 -0.0634750511185034 0.235269844660787
0.199431348612934 -0.0615291299172948 0.284062471388897
0.199918240913114 -0.0590771507919553 0.271946684163945
0.200601184118168 -0.057785790581988 0.271754173406171
0.199565935239723 -0.0554153569139683 0.205582659382916
0.199289193395795 -0.0477130954924161 0.245132633442183
0.200863582262642 -0.0371285439619129 0.23424460585345
0.200247596667379 -0.0336413769951476 0.25044785912656
0.200939756462294 -0.0326568498794519 0.217470351268044
0.200591845454268 -0.029981536301767 0.228069551683096
0.200739494003113 -0.0296732383190405 0.283752159184545
0.199434339426862 -0.0242423474837489 0.241343699453719
0.200054414502396 -0.0185892208624531 0.247333323160497
0.199494399853511 -0.0189747306741539 0.298610583819086
0.199870998260445 -0.00897656178472243 0.254287820062868
0.200541795098727 -0.00713592944120609 0.250368205816828
0.200400372325816 -0.00599374370555745 0.265586321604053
0.199378429517502 -0.00433744315927609 0.236243812372204
0.200265907773064 -0.00444822534867397 0.217177922910245
0.199004760887478 -0.00302179021576588 0.297192144535661
0.199906094546342 -0.00062675862910857 0.256271584215827
0.200900570696127 -0.000622363963744005 0.227551957762383
0.199552446058534 0.00335676137577444 0.270329996642964
0.199231330301828 0.0058517105624561 0.286029389324625
0.200409833063753 0.00844010742515334 0.268734183782464
0.200513595995972 0.00862504959257786 0.23250321970275
0.200156590472121 0.00913415936765644 0.282840266121403
0.199085940122684 0.0113116550187689 0.213805139316996
0.199838160344249 0.0197224341563158 0.202979430524613
0.19989809869686 0.0204695272682882 0.280380718405713
0.199903592028565 0.0233938718832972 0.249302621539964
0.199878078554643 0.0263100375377667 0.255112857448042
0.199778771324808 0.0328290353099154 0.275761741996521
0.199741355632191 0.0358288216803491 0.222320780053102
0.199234076967681 0.0360064394054994 0.2089359111301
0.199791405987732 0.0395209509567553 0.230015350810266
0.200135654774621 0.03895806756798 0.21395046845912
0.200301553392132 0.0400393383587145 0.289712546159246
0.19922016052736 0.0449180272835474 0.268221411786248
0.199692342905972 0.0455103915524766 0.233466383861812
0.199553483687857 0.0512172917874691 0.280923398541215
0.200194799645985 0.0529457991271706 0.222691824091311
0.199570146794031 0.0522946562089907 0.205155705435347
0.19925452436903 0.0536994842371899 0.287029602954192
0.199299447614978 0.0566047853022858 0.248287087618641
0.199841822565386 0.0644728232673116 0.261411328470717
0.20080895413068 0.0654652851954711 0.243169560838649
0.20033780938139 0.0669485457930235 0.289495864741966
0.199289254432813 0.0675120395519882 0.206087191381573
0.199013061922056 0.0679261146885586 0.26814676351207
0.199821680349132 0.0692649006622517 0.253890713217566
0.199558122501297 0.0692819299905393 0.253277108066042
0.199945219275491 0.0731993469038972 0.272316080202643
0.200908261360515 0.075846705526902 0.254232215338603
0.200948484756004 0.0790018311105685 0.207622943815424
0.200986388744774 0.081502273628956 0.259107242042299
0.200573961607715 0.0815260170293283 0.249407300027467
0.200208716086306 0.0824132511368144 0.24789284951323
0.199816736350597 0.0863675344096194 0.245734946745201
0.200914120914335 0.0882758568071536 0.267973296304208
0.199951261940367 0.089033021027253 0.250914304025391
0.199540543839839 0.0906038697470015 0.284338541825617
0.200100253303629 0.0923578295236061 0.298560228278451
0.199622516556291 0.0923432416760766 0.212501144444105
0.199801232947783 0.0923620410779138 0.244213782158879
0.19978450880459 0.0951268959624012 0.286771599475082
0.200390606402783 0.0941565294351024 0.244268227179785
0.200093356120487 0.0947046418652912 0.207056947538682
0.200857478560747 0.0973525498214667 0.276017120883816
0.200671620838038 0.0973082369457076 0.249951139866329
0.199369701223792 0.106231299783319 0.206764458143864
0.200598315378277 0.107103335673086 0.209501602221747
0.200194128238777 0.108383281960509 0.262453596606342
0.199101077303385 0.107980681783502 0.251930570390942
0.200471297341838 0.11487713248085 0.223760887478256
0.199105166783654 0.114922482985931 0.263875148777734
0.199513443403424 0.116175511947996 0.294678456984161
0.199619037446211 0.116132969145787 0.261997161778619
0.200216895046846 0.132297769096957 0.26467906735435
0.200437788018433 0.134044953764458 0.215229499191259
0.199078432569353 0.13784041871395 0.281775292214728
0.200494003112888 0.137751976073489 0.208274513992737
0.199416089358196 0.139052735984375 0.257150883510849
0.200127170628986 0.141336497085482 0.269115237891781
0.200977111117893 0.144936704611347 0.212462630085147
0.199827967162084 0.153482192449721 0.259388134403516
0.199417371135594 0.158888485366375 0.297825525681326
0.199891872920927 0.17348048341319 0.294534775841548
0.200406292916654 0.173479018524735 0.200780205694754
0.199140507217627 0.173961516159551 0.247191290017396
0.20059697256386 0.174089022492142 0.287815027314066
0.200684682760094 0.180047090060121 0.234948301644948
0.200662953581347 0.181081667531358 0.21215494247261
0.20086254463332 0.182032441175573 0.25237040314951
0.199273567918943 0.182254432813501 0.26946766563921
0.200242957853938 0.182276589251381 0.246927976317637
0.200529343546861 0.18470415356914 0.213001831110569
0.199177556688131 0.184094698934904 0.266345866267891
0.200236793115024 0.186030243842891 0.232400250251778
0.199080751976073 0.187986053041169 0.293743430890835
0.199740684224982 0.188378826258126 0.285867152928251
0.200648731955931 0.192518784142582 0.241343150120548
0.199075441755425 0.197651997436445 0.208813165684988
0.199859584337901 0.200585497604297 0.269223700674459
0.199222357860042 0.200142918179876 0.285259346293527
0.20006814783166 0.200759392071291 0.20355384990997
0.199495193334758 0.202185888241218 0.240795831171606
0.200075777459029 0.202445600756859 0.247366466261788
0.199783654286325 0.214120334482864 0.231212347788934
0.19996621601001 0.215405102694784 0.271422070986053
0.199811243018891 0.215216254158147 0.223421033356731
0.199001281777398 0.216063142796106 0.247666219061861
0.199956755272072 0.217258980071413 0.287419446394238
0.199219000824 0.219156193731498 0.230131687368389
0.199804528946806 0.218617053743095 0.240977111117893
0.200816949980163 0.219649189733573 0.295480849635304
0.200667165135655 0.21955854976043 0.2006051515244
0.199190496536149 0.220190832239753 0.296870235297708
0.200128757591479 0.220894528031251 0.266971984008301
0.200873104037599 0.225790856654561 0.236076509903256
0.199423780022584 0.227321665089877 0.21261272011475
0.200847712637715 0.228211584826197 0.270326578569903
0.199455702383496 0.228809686574908 0.228906430249947
0.199018127994629 0.229496963408307 0.245157414471877
0.199716696676534 0.230001617481002 0.291386913663137
0.199285470137638 0.2310151371807 0.279990874965667
0.199546159245582 0.232202490310373 0.257445142979217
0.200930173650319 0.232406109805597 0.283954680013428
0.200308267464217 0.234387493514817 0.221343455305643
0.199099673451949 0.23975130466628 0.268466048158208
0.199434339426862 0.239424024170659 0.228101779229102
0.199389782403027 0.239300912503433 0.28527198095645
0.200107089449751 0.240479842524491 0.247518570513016
0.199045045319987 0.249065370647298 0.229179754020814
0.200913022247993 0.249828638569292 0.267770470290231
0.20043272194586 0.257082461012604 0.29616019165624
0.19931159398175 0.258013763847774 0.280057710501419
0.199415662099063 0.26341639454329 0.235241279335917
0.200506576738792 0.264947264015625 0.22300988799707
0.200318033387249 0.266164281136509 0.229318063905759
0.200510116885891 0.278333231604968 0.236274391918699
0.20058592486343 0.277837672048097 0.245783593249306
0.200120761741997 0.278338480788598 0.296850520340587
0.200250587481307 0.27866508987701 0.219469374675741
0.2004257637257 0.284052644428846 0.288333903012177
0.200148655659658 0.285962248603778 0.210714468825343
0.199554765465255 0.285611957152013 0.218685720389416
0.200794915616321 0.307468886379589 0.227018738364818
0.199993438520463 0.308173986022523 0.201380382702109
0.199089175084689 0.308716422009949 0.259331858272042
0.199064455092013 0.308858699301126 0.280764885402997
0.20091790520951 0.310094393749809 0.252244483779412
0.199456190679647 0.310480452894681 0.282028168584246
0.200431257057405 0.310913937803278 0.266836542863247
0.199164006469924 0.310631519516587 0.244737540818506
0.199597796563616 0.315236274300363 0.296908383434553
0.20016891994995 0.320449324015015 0.21470647297586
0.200793206579791 0.323667073580126 0.290743522446364
0.199853053376873 0.329050599688711 0.202295632801294
0.20093768120365 0.3386354258858 0.257946317941832
0.199795739616077 0.348335734122745 0.238653859065523
0.200292641987365 0.351995269631031 0.230575182348094
0.200457441938536 0.351692342905972 0.252295815912351
0.200719229712821 0.352771416364025 0.278336161381878
0.200590990936003 0.354909787285989 0.212876766258736
0.199235053559984 0.35894817957091 0.255287789544359
0.200270485549486 0.36686663411359 0.23010831019013
0.199336680196539 0.366897762993255 0.210650257881405
0.199447706534013 0.371100711081271 0.271256050294504
0.199026062807092 0.374678640095218 0.223549455244606
0.199182622760704 0.375913663136692 0.274221655934324
0.199046388134404 0.376813592944121 0.254136692403943
0.199405102694784 0.380207739494003 0.249685872981964
0.199743247779778 0.38356086916715 0.266618457594531
0.200486861781671 0.385243415631581 0.244357280190436
0.200470259712516 0.387255012665181 0.210175756096072
0.199299325540941 0.388487350077822 0.226489669484542
0.199805871761223 0.388104709006012 0.220213782158879
0.199047303689688 0.38976119266335 0.284108005005036
0.200291055024873 0.390726798303171 0.261401074251534
0.199246467482528 0.404713675344096 0.251900112918485
0.200179784539323 0.406158665730766 0.207441236610004
0.199018982512894 0.408333231604968 0.219870998260445
0.199076418347728 0.41033548997467 0.201464369640187
0.200645619067965 0.411638752403333 0.247251167332987
0.200554734946745 0.414300271614734 0.1998025757622
0.200305337687307 0.414604113895077 0.24709900204474
0.199169072542497 0.418994140446181 0.242157322916349
0.200388042847987 0.420239112521744 0.244004486220893
0.199932157353435 0.421290108951079 0.240009063997314
0.19994174016541 0.422928281502731 0.234676381725517
0.19958125553148 0.429272408215583 0.300586962492752
0.199962065492721 0.428866389965514 0.264787896359142
0.199060487685781 0.428973387859737 0.257566484572893
0.199592608417005 0.432637989440596 0.276216406750694
0.199830225531785 0.437584124271371 0.280113376262703
0.199138981292154 0.437880703146458 0.210202002014222
0.199155705435347 0.437411389507736 0.262999389629811
0.199348704489273 0.443551103244118 0.282430341502121
0.199653096102786 0.442729117709891 0.228529221472823
0.200929013946959 0.44652360606708 0.3002917874691
0.200344157231361 0.449999359111301 0.201228034302805
0.199013183996094 0.454690359202857 0.254579943235572
0.200537705618458 0.45553175450911 0.249754295480209
0.199493667409284 0.461728415784173 0.222232886745811
0.200265968810083 0.461047059541612 0.289280404065065
0.199063173314615 0.461009094515824 0.243137577440718
0.200007477034822 0.462837458418531 0.284131076998199
0.199704062013611 0.465054750206 0.207821741386151
0.200276161992248 0.464921567430647 0.249300363170263
0.200474959562975 0.467681478316599 0.240874935148167
0.200597949156163 0.472723990600299 0.201655659657582
0.200029389324625 0.474511764885403 0.2591246375927
0.199680440687277 0.473890835291604 0.285553910946989
0.199599200415052 0.475743369853816 0.248386028626362
0.200461714529862 0.479935514389477 0.300152867213965
0.199446424756615 0.481462233344523 0.277881923886837
0.199444166386914 0.482869441816462 0.262830256050294
0.199275643177587 0.487526444288461 0.263621539963988
0.199540238654744 0.486279274880215 0.287085512863552
0.20005533005768 0.488916440321055 0.218653187658315
0.199811181981872 0.490057710501419 0.207469740897855
0.200372417371136 0.492156224250008 0.272590258491775
0.200239539780877 0.492983947264016 0.207812402722251
0.200089877010407 0.494585619678335 0.2198270516068
0.199270088808863 0.494528489028596 0.228776726584674
0.200939085055086 0.497058534501175 0.246618945890683
0.200546678060244 0.500543076876125 0.199796472060305
0.199010559404279 0.499338511307108 0.300763115329447
0.199477492599261 0.415043214209418 0.30083404034547
0.200067171239357 -0.189036255989258 0.300918698690756
0.201523941770684 -0.347015442365795 0.300207983642079
0.200394695883053 0.333042909024323 0.29934070863979
0.201781090731529 0.000234046449171437 0.30057774590289
0.200832453382977 0.393567522202216 0.300448286385693
0.201907498397778 -0.198430219428083 0.299014587847529
0.201118167668691 -0.239018372142705 0.30075829340495
0.20176589251381 -0.149221869563891 0.299964323862423
0.203303476058229 0.273471999267556 0.300285927915281
0.201896511734367 -0.250886715292825 0.300093966490677
0.202078768272958 0.00901629688406023 0.299742698446608
0.202240943632313 -0.123783410138249 0.300052705465865
0.202907101657155 -0.320705374309519 0.300253639332255
0.203183294167913 0.290063081759087 0.300147984252449
0.202388775292215 -0.431857936338389 0.299053773613697
0.202704641865291 -0.396219031342509 0.299003906369213
0.202612170781579 -0.432590319528794 0.300833124790185
0.203654683065279 -0.0383523972289193 0.300681630909146
0.204706289864803 0.416149632251961 0.299320505386517
0.204993102816858 0.0601987670522172 0.300741447187719
0.204485946226386 -0.157358104190191 0.300597766045106
0.203796411023286 -0.0478028809472945 0.299578691976684
0.204937498092593 -0.281357493820002 0.299741233558153
0.204947996459853 0.327951261940367 0.300302163762322
0.205525589770196 -0.442276223029267 0.300977477340007
0.205697042756432 -0.0594638203070162 0.300712820825831
0.20543562120426 0.153615497299112 0.299834253975036
0.206329203161718 -0.38555214087344 0.300816827906125
0.20640824610126 -0.14884447767571 0.299042115543077
0.205995635853145 -0.463722128971221 0.299031189916684
0.207192510757775 0.49910486159856 0.299426953947569
0.207320383312479 0.0779013946958831 0.300056367687002
0.206209936826685 -0.408354838709677 0.29999301126133
0.205967497787408 0.434142246772668 0.299548722800378
0.207558671834468 -0.456351115451521 0.299070619830927
0.206641163365581 -0.491765709402753 0.299482985930967
0.206459212012085 -0.4177140110477 0.300047883541368
0.207867885372478 -0.125751121555223 0.299689107943968
0.207826807458724 -0.480872188482315 0.300068269905698
0.207449964903714 0.321814539017914 0.299741477706229
0.207560136722922 -0.207189825128941 0.299408764915922
0.209128421887875 -0.451898037659841 0.299412060914945
0.207769066438795 -0.306310831019013 0.300303811761834
0.208797723319193 0.00143342387157809 0.299530472731712
0.209996917630543 -0.20706579790643 0.299999114963225
0.209183965575121 0.253411633655812 0.300562425611133
0.208455122531816 -0.161414197210608 0.299059083834346
0.208969969786676 0.276508041627247 0.299789574877163
0.208554246650594 -0.467991363261818 0.299657429731132
0.209429395428327 -0.335160893581958 0.299879543443098
0.209395764030885 0.215229682302316 0.299006591998047
0.210394634846034 -0.436236610003967 0.300140598773156
0.210266396069216 0.153346324045534 0.299476516006958
0.21016776024659 0.180137485885189 0.299104678487503
0.21016367076632 -0.144023102511673 0.300566148869289
0.210286599322489 0.474390301217688 0.299519913327433
0.211881435590686 0.0468115176854762 0.299973601489303
0.211007690664388 -0.0183507492294076 0.300623462630085
0.212660878322703 -0.339282906582842 0.3008112735374
0.211449171422468 0.320585985900449 0.299940275276955
0.212023529770806 -0.436245704519791 0.300780877101962
0.211848353526414 0.317081667531358 0.30008035523545
0.213422437208167 -0.149508194219794 0.300114780114139
0.212327066866054 0.132566515091403 0.299318308053835
0.212813837092196 -0.0245058442945647 0.299542374950407
0.214737113559374 0.327248725852229 0.300404461806085
0.213287423322245 -0.441464857936338 0.300720084231086
0.214871578112125 0.387042054506058 0.300306619464705
0.213979338969085 0.205543839838862 0.300706167790765
0.215810998870815 -0.0223645435956908 0.300681814020203
0.216610461745048 -0.19582119205298 0.300424970244453
0.216786614581744 -0.0755028839991455 0.299066774498733
0.216076693014313 -0.0458275399029511 0.299897671437727
0.217365001373333 -0.310748588518937 0.300313516647847
0.216539841914121 0.00232761619922488 0.299567033906064
0.21765755180517 0.0092813196203498 0.300921689504685
0.216309549241615 0.356664296395764 0.300563402203436
0.216231360820338 0.090818231757561 0.299896450697348
0.216502365184484 0.42513922544023 0.300497177037873
0.216741325113681 0.0732231513412885 0.300823603015229
0.217186101870785 -0.0364868007446516 0.300570848719749
0.217883693960387 0.117673421430097 0.299264046143986
0.218650807214576 0.26274254585406 0.299728232673116
0.218440534684286 -0.332408551286355 0.299577043977172
0.21838145084994 -0.169034485915708 0.299453749198889
0.21812698751793 0.399288766136662 0.300124362926115
0.219950834681234 -0.234152195806757 0.299948210089419
0.219139225440229 -0.0596894741660817 0.299752525406659
0.219401806695761 0.205769676808985 0.299988860744041
0.219077150791955 0.377174626911222 0.299734214300974
0.220271584215827 0.310787652211066 0.300082796716208
0.221186407055879 0.124801263466292 0.300228919339579
0.220975585192419 0.0709552598651081 0.300792229987487
0.221099673451949 0.298510544145024 0.29904486220893
0.221611468855861 0.26923468733787 0.300597460860012
0.221722434156316 -0.498746024964141 0.29930286568804
0.220945127719962 -0.392844294564653 0.299622882778405
0.222816339609973 -0.419206549272134 0.299759056367687
0.221265694143498 0.175615680410169 0.300224158452101
0.222644215216529 0.276602282784509 0.299302011169774
0.221738914151433 -0.184474410229804 0.300080843531602
0.223700094607379 -0.407228949858089 0.299734214300974
0.223409375286111 0.420406964323862 0.299302438428907
0.223569536423841 -0.300136692403943 0.300639088106937
0.224332255012665 0.0647508468886379 0.299386852626118
0.22387069307535 -0.480288674581133 0.299172612689596
0.223642475661489 -0.155612384411145 0.299920621356853
0.224317484054079 -0.0962647480697043 0.300245277260659
0.224492477187414 -0.170641285439619 0.299932340464492
0.224675954466384 0.154681752983184 0.299032410657063
0.224978698080386 -0.244304971465194 0.300045258949553
0.224490096743675 -0.181650166325877 0.300320169682913
0.22544611957152 0.0729747917111728 0.300285622730186
0.225667256691183 -0.205478286080508 0.300100314340648
0.225841151158177 -0.103069338053529 0.299826685384686
0.225101077303384 0.456838190862758 0.30033548997467
0.226141270180364 -0.0257746818445387 0.300343424787133
0.225861537522507 -0.410707815790277 0.30016074098941
0.22649040192877 -0.207232917264321 0.299267769402142
0.226366252632221 0.296749076815088 0.300229834894864
0.22509027375103 0.294913632618183 0.300313638721885
0.227450514236885 0.201016235847041 0.299700949125645
0.227969512009033 0.116016022217475 0.299443494979705
0.227790734580523 0.00871385845515304 0.299732871486557
0.227250373851741 -0.443914883877071 0.300218298898282
0.226850825525681 0.0304747154148992 0.299588518936735
0.22868492690817 0.355910061952574 0.300458418530839
0.227881435590686 0.388132908108768 0.299755760368664
0.228574999237037 -0.445854762413404 0.299603167821284
0.229093691824091 0.243290231025117 0.299158879360332
0.228532395397809 -0.176127414777062 0.300330423902097
0.229318247016816 -0.34821201208533 0.300785271767327
0.229421521652882 0.00811740470595416 0.30014212469863
0.228904843287454 -0.214546922208319 0.300150791955321
0.229267708365123 0.0385392925809504 0.299987395855586
0.229680074465163 -0.215056703390606 0.30021958067568
0.229598895229957 0.199462782677694 0.300823114719077
0.230309305093539 -0.191688802758873 0.300926511429182
0.230956114383374 0.37529877620777 0.300565233314005
0.230189184240242 -0.0908597369304483 0.299582842493973
0.231378795739616 -0.186951719718009 0.300404278695029
0.231133671071505 -0.442241554002502 0.300415204321421
0.232531785027619 0.491416760765404 0.300193151646474
0.231418836024049 0.2168695638905 0.299556291390728
0.231353465376751 -0.259681539353618 0.300826776940214
0.231542008728294 0.26757893612476 0.300215979491562
0.231884182256539 0.389848231452376 0.300455732902005
0.233208563493759 -0.470749931333354 0.299763023773919
0.232876216925565 0.368331827753533 0.30027201147496
0.231932340464492 -0.441400830103458 0.300299111911374
0.233722006897183 -0.337681661427656 0.299717795342875
0.233477980895413 0.283194097720267 0.299244331186865
0.233487868892483 0.162855952635273 0.299551042207099
0.233747337260048 0.342680654316843 0.300741874446852
0.234531662953581 0.376765129551073 0.299500259407331
0.234455183568834 -0.155088442640461 0.300565111239967
0.23325159459212 -0.35548628192999 0.300513779107028
0.234619617297891 -0.0442941679128391 0.300937192907498
0.234549913022248 0.254066927091281 0.299093691824091
0.234815118869594 0.122580736716819 0.299484939115574
0.234875789666433 0.0584870448927274 0.300164464247566
0.235024719992676 -0.289113223670156 0.300712942899869
0.23564937284463 0.211791589098788 0.300598864711447
0.235700216681417 0.128752250740074 0.299134586626789
0.235860744041261 0.0918540910061953 0.299172673726615
0.236708914456618 -0.114425336466567 0.300798089541307
0.236010162663655 -0.252519150364696 0.299578875087741
0.235992278817103 -0.230579454939421 0.300631946775719
0.237232184820093 -0.238708609271523 0.300465620899075
0.237549577318644 0.153418042542802 0.299074587237159
0.238288979766228 0.437729026154363 0.299513931699576
0.237616351817377 -0.41657481612598 0.299078432569353
0.238846308786279 -0.373937162388989 0.300590014343699
0.237978118228706 0.209189703054903 0.300051911984619
0.238529831843013 0.181560075685903 0.299242988372448
0.239080263679922 0.10701281777398 0.300871333964049
0.239388378551592 0.0958535416730247 0.299531571398053
0.239564592425306 0.127269356364635 0.30000119022187
0.239898037659841 0.294361064485611 0.299581682790612
0.239420850245674 0.325708761864071 0.299269356364635
0.239210394604328 0.465986724448378 0.299678365428632
0.239417859431745 -0.178213110751671 0.299187566759239
0.239999176000244 -0.130938474684896 0.300303689687796
0.239975737784967 -0.161678731650746 0.300151158177435
0.240628833887753 -0.0983571581163976 0.299616595965453
0.240542039246803 0.00463975951414531 0.29963771477401
0.240315042573321 0.261845606860561 0.299672444837794
0.241956450086978 0.0823570360423597 0.300900753807184
0.241558793908506 0.28755970946379 0.299445631275369
0.242921018097476 -0.369654805139317 0.299879482406079
0.242815912350841 0.17508209479049 0.299711935789056
0.242943113498337 -0.16574721518601 0.300361186559648
0.243689901425214 -0.284428876613666 0.299300302133244
